# .PCD v0.7 - Point Cloud Data file format
VERSION 0.7
FIELDS x y z
SIZE 4 4 4
TYPE F F F
COUNT 1 1 1
WIDTH 1565
HEIGHT 1
VIEWPOINT 0 0 0 1 0 0 0
POINTS 1565
DATA ascii
6.7131376 -3.4604475 1.1360543
6.8550758 -3.4580693 1.1085119
6.9318099 -3.4534261 1.1638274
7.0438051 -3.4498482 1.1042011
7.1207929 -3.4172549 1.1084136
7.2060285 -3.4060612 1.1908437
9.5556927 -3.4745989 1.1948495
10.862411 -3.4380479 1.1381044
13.587399 -3.4895055 1.1301268
13.629662 -3.4661584 1.1323564
13.741446 -3.4204888 1.1243722
14.09525 -3.4038367 1.1658417
14.124735 -3.418129 1.150507
14.233812 -3.472404 1.1033823
14.309303 -3.4925594 1.133165
15.226659 -3.4080033 1.1920116
15.320381 -3.425415 1.1858174
16.045488 -3.4542215 1.1036391
16.111305 -3.4582889 1.1545353
6.2881565 -3.3074107 1.1972913
6.3629303 -3.3176115 1.117426
6.4324598 -3.3592002 1.1113849
7.0727386 -3.3669758 1.110642
7.1710801 -3.3240972 1.1273906
7.2234969 -3.3182206 1.1338646
7.3017173 -3.3131113 1.1807383
9.5730209 -3.3698978 1.1991872
9.6630116 -3.3369136 1.1613195
10.743946 -3.3183212 1.1266515
10.821686 -3.3846216 1.1284294
13.779671 -3.3982053 1.1385388
13.852983 -3.3851624 1.137741
13.966869 -3.3758643 1.1510742
14.038877 -3.3892999 1.166732
14.211816 -3.3946173 1.1938459
15.049497 -3.3191321 1.1930224
15.129894 -3.3395593 1.1656553
15.214873 -3.3945112 1.1687679
15.338818 -3.3910918 1.1175978
15.991302 -3.3156929 1.1084709
16.012358 -3.3569531 1.1056634
16.11272 -3.3136625 1.1633267
6.2767282 -3.2426119 1.1170515
6.3214989 -3.2891536 1.10835
7.2491746 -3.2422521 1.1349232
7.3198085 -3.2254119 1.1467968
7.4006338 -3.2023554 1.1954761
9.6662149 -3.2330651 1.1995721
9.7615261 -3.2462406 1.1376905
10.658916 -3.243566 1.1090448
10.70962 -3.2854409 1.117658
11.663441 -3.2055705 1.1826377
11.73547 -3.2192202 1.1982453
11.883364 -3.2158165 1.1812894
11.915702 -3.214653 1.18764
14.964664 -3.2174907 1.1609113
15.020697 -3.2552478 1.1476688
15.106436 -3.2970695 1.1017058
15.98985 -3.2990212 1.1033602
16.074146 -3.2352908 1.1039207
16.130566 -3.2130342 1.1215891
16.202358 -3.2154741 1.1693411
6.1993542 -3.1722369 1.1819321
6.2173872 -3.1865039 1.159693
7.295969 -3.1976495 1.1369609
7.32096 -3.1726611 1.1641148
7.4110665 -3.1147029 1.1230187
9.7543459 -3.1277254 1.1980858
9.8684416 -3.1613431 1.1265645
11.461418 -3.1426401 1.1842355
11.544188 -3.1725574 1.1777519
11.683588 -3.1129975 1.1157322
11.75467 -3.1230638 1.1188725
11.847136 -3.128088 1.1198626
11.947918 -3.1240714 1.1252053
12.045503 -3.1369412 1.1826457
12.151364 -3.1532865 1.1750975
12.216537 -3.1076493 1.1718858
14.894262 -3.1277432 1.1494261
14.911149 -3.1425967 1.1414485
16.138309 -3.1635535 1.1086093
16.215107 -3.1242423 1.1505245
16.312996 -3.1207433 1.1947775
6.1547627 -3.0695453 1.1877759
7.3770294 -3.0706711 1.162068
7.4218802 -3.0665188 1.1054163
9.8569527 -3.0661266 1.1966333
9.925848 -3.0333455 1.1912352
10.276619 -3.0048995 1.1837648
10.361612 -3.027534 1.1937878
10.400566 -3.0403302 1.1871085
11.363497 -3.0754335 1.1689105
11.46471 -3.0271306 1.1262755
11.538918 -3.0602903 1.1177576
11.628443 -3.0976486 1.1211901
12.05392 -3.0875325 1.1170181
12.184771 -3.0225883 1.1116966
12.2071 -3.0133169 1.1230086
12.310459 -3.0151114 1.1700778
14.845669 -3.0483906 1.1567587
14.915129 -3.0834036 1.1120858
16.173172 -3.058892 1.1063302
16.215086 -3.0663395 1.1407447
16.315914 -3.0358639 1.1891036
6.1276274 -2.9810855 1.1768379
7.3952374 -2.9676335 1.1266141
7.4366512 -2.943099 1.1802535
11.260897 -2.9293857 1.1623645
11.365324 -2.9487278 1.1185765
11.419292 -2.9874675 1.1231339
12.27043 -2.9553065 1.1100531
12.306326 -2.9318905 1.1129501
14.796776 -2.9704132 1.1872323
14.855162 -2.9810557 1.1634784
16.166183 -2.9422529 1.1080749
16.224018 -2.9706764 1.1482909
16.307262 -2.9474814 1.1888013
6.0950255 -2.8601584 1.16922
6.1255579 -2.8915062 1.1271019
7.4477158 -2.8524756 1.1745241
7.531034 -2.8582044 1.1079664
11.185367 -2.8200984 1.1859336
11.233156 -2.849674 1.115072
12.350009 -2.8653283 1.1120331
12.409421 -2.8329265 1.1605356
16.095629 -2.8095622 1.1052513
16.170216 -2.85413 1.1326056
16.220259 -2.8631423 1.1675076
16.306599 -2.8749757 1.1947552
6.1058683 -2.7236695 1.1937075
7.4465351 -2.74194 1.1699748
7.5339289 -2.74 1.1130967
11.164634 -2.7505107 1.1712644
12.447165 -2.754333 1.1726356
15.850908 -2.7072759 1.1061183
15.982925 -2.7062161 1.1199874
16.048357 -2.7558661 1.1124762
16.136667 -2.7863598 1.1421415
16.219244 -2.7928843 1.1957657
6.1138887 -2.6750717 1.1946185
7.4452577 -2.6553025 1.1706694
7.5231404 -2.6911278 1.1190889
11.148195 -2.6604064 1.1548935
12.473043 -2.6645133 1.1501381
12.537648 -2.6408608 1.1272261
14.899004 -2.6311996 1.1380335
14.914463 -2.6209285 1.1222433
15.790339 -2.6557555 1.1146286
15.806849 -2.6823149 1.1180942
15.987412 -2.6676524 1.1499779
16.055672 -2.6710613 1.1732755
16.117996 -2.6937699 1.1825435
6.1440401 -2.5690265 1.1951079
7.4171848 -2.564621 1.168462
11.136091 -2.5205219 1.1577036
12.525109 -2.5157671 1.1851324
12.611501 -2.5173414 1.1404243
14.96043 -2.5176132 1.181437
15.016161 -2.5053666 1.1234939
15.660639 -2.5122404 1.106688
15.78513 -2.5860422 1.176486
15.807289 -2.5943055 1.1969895
15.927739 -2.5976789 1.1943951
16.007603 -2.5966311 1.196733
6.1873207 -2.4776936 1.1886997
6.2112136 -2.4353569 1.1934335
11.143871 -2.4639285 1.1513211
12.567783 -2.4207373 1.1314124
12.614029 -2.4284668 1.1492875
14.980387 -2.4905663 1.1925864
15.045561 -2.4702458 1.1481965
15.122757 -2.4241037 1.1485475
15.260092 -2.4073987 1.1037333
15.387137 -2.403012 1.1005864
15.494127 -2.4083834 1.1313322
15.568176 -2.4509182 1.1136686
15.633644 -2.4803071 1.1277654
15.704165 -2.4823883 1.1956817
6.2661381 -2.3625193 1.1928256
6.3117609 -2.3130674 1.1942897
10.172821 -2.3178849 1.1779007
10.239201 -2.3498125 1.1965303
10.349389 -2.3586216 1.1741563
10.456703 -2.3419948 1.1554601
10.527051 -2.3089075 1.1082947
11.163423 -2.3230979 1.1816392
12.44071 -2.3000793 1.1958634
12.533964 -2.3559432 1.1535943
12.614817 -2.3550525 1.1381308
15.187987 -2.3896313 1.1669325
15.266926 -2.391274 1.1287042
15.358239 -2.373683 1.1524043
15.460304 -2.3924699 1.1432998
15.528358 -2.3940113 1.1835189
15.604679 -2.3974855 1.1918647
6.3603654 -2.2704849 1.1974736
6.4361367 -2.2196538 1.1945226
6.5055976 -2.2025013 1.1157434
7.0537634 -2.2001889 1.1276724
7.1166887 -2.2167699 1.1683249
10.073804 -2.2355633 1.1170515
10.114531 -2.2742267 1.1180195
10.538167 -2.2521763 1.1175112
11.195402 -2.2851217 1.134927
11.210959 -2.21664 1.1786581
12.345463 -2.2130938 1.1806581
12.451093 -2.2247467 1.1409168
12.523952 -2.271368 1.1285866
6.4890342 -2.1928048 1.1868197
6.576273 -2.158092 1.19503
6.6802473 -2.1333628 1.196497
6.7578955 -2.1271529 1.1973417
6.8100395 -2.1460724 1.1302062
6.9521041 -2.1510971 1.1922826
7.0241351 -2.1843174 1.1502236
7.1141229 -2.1966131 1.1733211
9.993578 -2.1159902 1.1296277
10.021975 -2.172576 1.1261361
10.581549 -2.1903839 1.1223024
11.27817 -2.1355786 1.1452973
12.23383 -2.121161 1.1372344
12.314724 -2.1875298 1.1730821
12.423965 -2.1743431 1.125406
6.8739529 -2.0932584 1.1989721
9.9645844 -2.0225844 1.1396475
10.692215 -2.0355611 1.1754152
10.702934 -2.0076747 1.1122658
11.374013 -2.0425673 1.1307156
11.405613 -2.0201898 1.1232524
12.098562 -2.0093725 1.1445962
12.181467 -2.0884552 1.1109266
12.206772 -2.090065 1.1421382
9.6912012 -1.9124806 1.1758677
9.7153997 -1.9342029 1.1865929
9.8395176 -1.9739678 1.1513631
9.9439869 -1.9935347 1.1386156
10.694902 -1.9571978 1.1037819
10.706224 -1.9732109 1.1693858
11.477045 -1.9664996 1.1325502
11.512478 -1.9566591 1.1135368
11.870815 -1.9309094 1.1437668
11.933433 -1.9606552 1.1080518
12.058914 -1.9849705 1.1557087
12.107757 -1.9574714 1.1793494
9.5908108 -1.8090661 1.1621809
9.6170692 -1.8445792 1.1683271
9.7008114 -1.8989098 1.1381507
10.675691 -1.8782313 1.103669
10.750736 -1.8060114 1.1057596
10.864023 -1.82969 1.1914822
11.868034 -1.8867695 1.1880345
11.926109 -1.8942913 1.1929922
9.5473213 -1.7370033 1.1509539
10.79411 -1.7330575 1.1045926
10.806143 -1.7495656 1.1175671
10.916306 -1.7375737 1.1805377
9.4849663 -1.6258733 1.1670871
9.5152922 -1.6626406 1.1449933
10.822611 -1.6782405 1.1110547
10.918014 -1.62885 1.1803885
9.47365 -1.5603369 1.1599104
10.834652 -1.5508661 1.1185198
10.929631 -1.5787163 1.1838068
9.4871349 -1.4776649 1.1243153
10.816273 -1.42686 1.1325693
10.931623 -1.4618984 1.1826253
9.4923325 -1.3447576 1.1362495
9.5073586 -1.3275148 1.1263599
10.679308 -1.3253269 1.1069764
10.749231 -1.3673193 1.1189713
10.873055 -1.3294394 1.1882282
10.909296 -1.392168 1.187706
9.4958916 -1.2860229 1.153769
9.537384 -1.2528722 1.1173342
10.755589 -1.2149751 1.1907282
10.824003 -1.2721159 1.1887474
7.2975225 -1.108254 1.1923622
7.3514042 -1.1269201 1.1714907
7.4440899 -1.1423162 1.1730607
7.5350556 -1.1569033 1.1833824
7.6382747 -1.1487725 1.1820385
7.7133985 -1.124953 1.1347466
9.5484648 -1.1926826 1.13542
10.465382 -1.1494683 1.1890944
10.539442 -1.1476915 1.1919842
10.645144 -1.1656764 1.1905613
10.709256 -1.1874616 1.1912451
12.424504 -1.1157017 1.1576214
12.527575 -1.1289539 1.1436112
12.679221 -1.1717143 1.1197522
12.755682 -1.1471102 1.111716
12.810114 -1.1065381 1.1246674
14.850716 -1.1079414 1.1266651
14.953176 -1.1125644 1.1272696
15.025299 -1.1071799 1.1318941
15.115989 -1.106204 1.1708105
7.1578169 -1.0064199 1.1860235
7.258388 -1.04893 1.1752511
7.3130012 -1.0760145 1.1868147
7.465435 -1.082196 1.1089879
7.537662 -1.0768049 1.1115109
7.6456203 -1.075547 1.1507844
7.7898474 -1.021365 1.1450272
7.8089151 -1.0179653 1.1378341
7.9338274 -1.0164348 1.1459157
9.5855532 -1.0802329 1.1601779
9.658596 -1.0454664 1.1910369
9.7187424 -1.0067275 1.190578
10.285947 -1.0155861 1.1834639
10.350622 -1.0537951 1.1874394
10.40402 -1.0964122 1.1904883
12.377176 -1.0130458 1.1549616
12.412313 -1.0299233 1.1403799
12.514652 -1.0832832 1.1467688
12.874212 -1.068747 1.1256087
12.940328 -1.0146562 1.1339631
14.676895 -1.0093541 1.134673
14.771536 -1.0750552 1.1580153
14.823326 -1.0925143 1.1718827
14.955948 -1.0937499 1.1224616
15.070903 -1.090627 1.1126132
15.170237 -1.0552838 1.1068851
15.258864 -1.0134526 1.1118807
15.320213 -1.0087935 1.1401246
7.0847225 -0.92599005 1.1133447
7.164752 -0.98652899 1.1346239
7.8885112 -0.96766245 1.1475199
7.97089 -0.92142856 1.174777
8.0105438 -0.92613697 1.1632452
9.7512074 -0.98821247 1.1976469
9.8411865 -0.95899254 1.1656138
9.9731035 -0.93399382 1.1750202
10.034341 -0.93379235 1.1797727
10.154797 -0.96437341 1.1905867
10.205542 -0.97133237 1.1820445
12.291516 -0.91808939 1.1659846
12.321823 -0.96288794 1.1462649
12.976478 -0.95879173 1.1414341
13.003267 -0.90313631 1.1480432
14.551306 -0.91471708 1.1472589
14.642912 -0.99260998 1.1177201
15.292162 -0.99840426 1.1012263
15.345314 -0.94648957 1.1062078
15.426678 -0.90264356 1.1582372
6.9815297 -0.81701708 1.1072721
7.0339551 -0.86797369 1.1075535
7.983212 -0.88317847 1.1350656
8.0771799 -0.85564119 1.1109186
8.1039801 -0.81191778 1.107919
12.251633 -0.85677004 1.1399988
12.302805 -0.89261723 1.1463835
12.991325 -0.84018528 1.1019226
13.017027 -0.81785822 1.1580895
14.452946 -0.80847561 1.1393238
14.51458 -0.85152888 1.103337
15.433001 -0.85550386 1.105166
15.509145 -0.81045151 1.1819625
6.8986435 -0.70232075 1.1874245
6.9551592 -0.76894128 1.107451
8.1374149 -0.72132266 1.110303
12.094358 -0.70565546 1.1668211
12.137434 -0.7056008 1.136095
12.204636 -0.73297489 1.1661748
13.020622 -0.74227524 1.1632625
14.387037 -0.71709996 1.1167622
14.413103 -0.75035894 1.114049
15.490698 -0.77882665 1.111702
15.510356 -0.73605168 1.1052392
15.602984 -0.70953918 1.1844938
6.8959999 -0.64613372 1.1483713
6.921484 -0.68333948 1.1104605
8.1735897 -0.6313597 1.1201633
8.202158 -0.62292004 1.1064706
11.979191 -0.65590572 1.163548
12.077904 -0.69449234 1.1451614
12.108983 -0.69545937 1.1319964
13.098893 -0.66676879 1.1869879
14.364132 -0.67169368 1.1087811
15.584364 -0.68383372 1.1051953
15.659966 -0.62057227 1.104056
15.707405 -0.6075511 1.1120758
6.8839993 -0.56601745 1.1336294
6.9009886 -0.59648299 1.1121703
8.1651821 -0.53047407 1.1476698
8.2283039 -0.53895903 1.1177292
11.851412 -0.54815769 1.1548783
11.93914 -0.5744499 1.1053578
13.097885 -0.56421041 1.1200054
13.175418 -0.5811547 1.1945411
13.207596 -0.51564074 1.1945159
14.293192 -0.53919697 1.170552
14.323467 -0.56092298 1.1224449
15.595388 -0.59678304 1.1849077
15.687635 -0.57693613 1.1119875
15.712537 -0.54344511 1.1062385
6.8684974 -0.46830988 1.1533515
8.1899147 -0.43829131 1.1250226
8.2330618 -0.46403182 1.1267085
13.182089 -0.43956029 1.1420003
13.226809 -0.43307373 1.1955529
14.335808 -0.44330692 1.110709
15.690627 -0.48825237 1.1549129
15.731066 -0.49238357 1.1113796
15.803719 -0.42064589 1.1033607
6.867053 -0.34172958 1.1851593
8.1798229 -0.33766258 1.1196059
8.2586937 -0.38552734 1.115625
13.151872 -0.37020993 1.1084313
13.204198 -0.31253803 1.1497197
14.337696 -0.38067436 1.1024619
15.687054 -0.3611719 1.1919296
15.770289 -0.36522901 1.1056186
15.801754 -0.33774614 1.1034789
6.8777375 -0.28221679 1.1898634
6.91467 -0.26514053 1.1087879
8.0858326 -0.22699919 1.164703
8.1431942 -0.24836163 1.1145867
9.1819086 -0.20650733 1.11687
9.2757778 -0.20677459 1.1177427
9.3268499 -0.2046569 1.129241
9.4595385 -0.20663214 1.1777327
13.140161 -0.23390384 1.1172385
13.202869 -0.24523279 1.1635871
15.683666 -0.24464709 1.1769705
15.727904 -0.26182681 1.1386033
15.805487 -0.2847878 1.104907
6.8930941 -0.19173998 1.1756823
6.9342599 -0.17497835 1.1459012
8.0640364 -0.15850216 1.1654156
8.1123247 -0.15991497 1.1476152
8.9692192 -0.10909256 1.1765726
9.0518284 -0.15745483 1.1438335
9.1440754 -0.18180048 1.1957313
9.2444696 -0.1974045 1.1952114
9.3634949 -0.19252713 1.1144905
9.4711876 -0.16418181 1.1214874
9.5363407 -0.139359 1.1307691
9.6723957 -0.10388002 1.1971521
13.086617 -0.15779689 1.1072428
13.191923 -0.16412686 1.184804
13.211708 -0.18361123 1.195076
15.576273 -0.13983004 1.1847908
15.65374 -0.11724362 1.1083701
15.73167 -0.18847767 1.1027125
6.9706593 -0.080518082 1.1649389
7.0330448 -0.038876764 1.1253343
7.8976898 -0.011218548 1.1195605
7.9599361 -0.072961658 1.1083949
8.0201149 -0.044659723 1.1663834
8.872941 -0.01496903 1.145124
8.9160137 -0.048065469 1.149797
9.6716213 -0.078594208 1.1691997
9.7295151 -0.041265801 1.1799293
12.753036 -0.0082618706 1.1017613
12.963719 -0.0025447011 1.1429067
13.067415 -0.024745746 1.1976562
13.147534 -0.078040868 1.1960933
14.439646 -0.021305494 1.131997
15.476044 -0.046004444 1.1818621
15.569107 -0.063825577 1.1219828
15.622549 -0.086897641 1.1113273
15.705653 -0.097058773 1.1090865
7.0617895 0.0048837494 1.1633126
7.1713986 0.056531519 1.1243148
7.2295861 0.09302792 1.1324608
7.7452564 0.083467484 1.1095419
7.8402109 0.033865139 1.1120718
7.9486275 0.026629791 1.1699665
8.004406 0.0052552223 1.1936848
8.7891989 0.040768929 1.1853038
8.8455696 0.027741339 1.1114454
9.785841 0.016197979 1.1831365
9.8188467 0.057687283 1.1602039
11.892429 0.051084042 1.1032143
11.917442 0.079637051 1.1045771
12.719227 0.062968887 1.1935389
12.871435 0.053530559 1.1777997
12.964037 0.046643376 1.1918253
13.036702 0.017949581 1.1983175
14.476618 0.037022106 1.163604
14.526024 0.082679808 1.1697582
15.296963 0.0978266 1.1047149
15.349841 0.04690282 1.1107242
15.411377 0.020644421 1.1770914
15.513981 0.0039654328 1.1070807
7.1607332 0.10598229 1.1628537
7.2685809 0.11063271 1.1347202
7.3339081 0.14231503 1.1524961
7.4305325 0.16562346 1.159169
7.529768 0.17609954 1.1700766
7.6866083 0.14981857 1.161887
7.7532845 0.12859885 1.1619517
7.8253212 0.11063337 1.1700344
8.6816978 0.19016409 1.1954803
8.7118244 0.15355378 1.1717436
9.8809118 0.16281252 1.1838161
11.967845 0.14279516 1.1245706
12.018002 0.17143857 1.11745
12.564304 0.17869285 1.1532516
12.644256 0.13032283 1.1745574
12.705248 0.10882783 1.1855524
14.555813 0.11242259 1.1868902
14.633647 0.16285732 1.1955252
14.756021 0.18629739 1.1300092
15.079735 0.19669074 1.1230453
15.184238 0.17279764 1.1458805
15.258198 0.11995075 1.1211689
15.320115 0.11416522 1.1732317
7.2667685 0.20641384 1.1447676
7.3100495 0.2324807 1.1307335
8.6696777 0.24382524 1.1670525
9.9173126 0.28548285 1.1816502
12.175274 0.2481939 1.1431954
12.283657 0.26576543 1.1694973
12.361446 0.25736761 1.1632792
12.445713 0.22210856 1.1353784
12.516127 0.20918283 1.1530415
14.772109 0.21512169 1.1907517
14.875954 0.23004723 1.1908756
14.951871 0.23260891 1.1853595
15.077114 0.21139085 1.1624837
15.139045 0.20536812 1.1855136
15.203388 0.20182025 1.190644
8.6597147 0.3522076 1.1088029
9.9252739 0.35352451 1.1706824
8.5820732 0.46932703 1.1618276
8.637908 0.44551224 1.1192728
9.9323359 0.44666955 1.1661394
8.5887318 0.5663892 1.1619494
8.6254349 0.54425192 1.1537867
9.9373245 0.55967516 1.1623814
8.5971355 0.63309222 1.1552777
8.6137924 0.66757804 1.1448166
9.8898325 0.68286783 1.1665558
9.9209242 0.63415021 1.1692716
8.5967951 0.71814108 1.1498151
8.6451454 0.75516903 1.1301707
9.8679047 0.74580473 1.186326
8.6628685 0.81326544 1.1312029
9.7887001 0.87479764 1.1877682
8.6839905 0.92279184 1.1260719
9.5999975 0.99901003 1.1007783
9.6517944 0.98391807 1.1570868
9.7225285 0.94021344 1.1752079
13.645739 0.99414551 1.1747251
13.758092 0.99792486 1.1555765
13.818895 0.99573123 1.1743617
9.3930483 1.0995919 1.1377909
9.4735794 1.0683106 1.1235235
9.5491962 1.0289202 1.1109471
9.6179361 1.0180438 1.1665534
13.582044 1.0416181 1.1735294
13.607203 1.0086241 1.1582361
13.756167 1.0108103 1.1237547
13.845217 1.0300733 1.1093355
13.911818 1.0363952 1.1290745
14.034874 1.0577443 1.1944368
14.10659 1.0970559 1.192095
9.2732248 1.1283574 1.1024472
9.3401794 1.122046 1.1298354
9.4371471 1.1114018 1.1030056
13.4812 1.1203578 1.1380967
13.514503 1.1028358 1.1605278
13.86744 1.1249064 1.1032391
13.921116 1.1266258 1.1269846
14.027809 1.1543043 1.1456542
14.183945 1.1713846 1.1758119
14.208732 1.1969585 1.1723113
13.27798 1.2756835 1.1607637
13.341105 1.2153106 1.1585748
14.193434 1.2087601 1.1158563
14.219408 1.2866516 1.1222661
14.310268 1.2828044 1.1972072
13.214613 1.3452933 1.1780622
14.255259 1.3591523 1.1213331
14.312608 1.3865484 1.1186764
13.174456 1.426846 1.1659585
14.29385 1.4416037 1.1178038
14.317484 1.4762628 1.1184835
14.402381 1.4864304 1.1776501
13.128001 1.5614462 1.1609631
14.354696 1.5677904 1.1174001
14.40884 1.5748135 1.1086518
13.117626 1.6262763 1.1512263
14.394132 1.6559577 1.1332228
14.403606 1.6672509 1.1775516
14.500238 1.6960003 1.1038604
10.846386 1.7805209 1.1608166
13.107302 1.7484367 1.1614826
14.422084 1.7642004 1.1195308
14.502207 1.7640126 1.1050103
10.481329 1.8953209 1.1760399
10.523206 1.8736883 1.1784033
10.626785 1.8425133 1.1786716
10.753439 1.8278058 1.1652017
10.834802 1.832927 1.1557803
10.900782 1.8295965 1.1465864
11.240882 1.8808935 1.18562
13.137824 1.8827537 1.1252803
14.39533 1.8518981 1.1502969
14.410374 1.8351169 1.1282765
14.501526 1.8087628 1.1028006
10.360458 1.9880433 1.1509145
10.411246 1.941957 1.1625849
11.281906 1.9252976 1.1656916
11.331782 1.9707539 1.173762
13.154053 1.9697418 1.1416261
14.375131 1.9464447 1.1141678
14.427391 1.9163736 1.1068749
10.273527 2.0875678 1.1556903
10.329086 2.0167444 1.1604348
11.378449 2.0283022 1.1784708
11.40777 2.0727761 1.1772671
13.172314 2.0398726 1.1818841
13.210057 2.0849657 1.173914
14.27893 2.0635207 1.1178223
14.363347 2.0041399 1.1068157
14.404169 2.0121684 1.1004211
10.197226 2.1916113 1.1899335
10.230267 2.1680198 1.1428457
11.429545 2.1270251 1.1695101
13.277076 2.1432786 1.1226106
13.306595 2.172781 1.1276901
14.164082 2.1719708 1.1590153
14.212111 2.1186986 1.1284866
14.3053 2.1200953 1.186774
7.1968999 2.2998028 1.1917899
7.2823014 2.2943935 1.1195208
7.340682 2.2881021 1.105376
7.4319978 2.2793028 1.1061144
7.5438094 2.283473 1.109876
7.6025662 2.2683656 1.1870337
10.188536 2.2708046 1.1402866
10.203555 2.2212598 1.1445705
11.472742 2.2604165 1.1685649
13.396644 2.2468219 1.1480556
13.444735 2.2810287 1.1610336
13.524939 2.2931294 1.1089678
13.994295 2.2976658 1.1216819
14.027509 2.275773 1.1500791
14.136091 2.2157097 1.1762347
14.202135 2.2055163 1.1578999
7.0875063 2.3859329 1.1088574
7.1566086 2.3479288 1.1051559
7.2463121 2.3115633 1.1053029
7.3137541 2.3047099 1.1026319
7.441268 2.3011589 1.1028713
7.6894116 2.3605809 1.1598264
7.746665 2.3542724 1.1541939
7.8230772 2.3493721 1.1828768
10.169497 2.3633561 1.1318721
11.489462 2.3344045 1.1758263
13.48155 2.3093314 1.1920576
13.559443 2.3189135 1.1377112
13.652378 2.3413639 1.1446387
13.734365 2.3472338 1.1440256
13.866826 2.3405659 1.1640426
13.952118 2.3201935 1.1896312
14.03351 2.306211 1.1808057
14.544798 2.3862073 1.1611686
14.68362 2.3700671 1.1339419
14.718472 2.3684664 1.1125115
14.828095 2.3875494 1.1115501
14.926208 2.3932996 1.1105086
15.042534 2.3953819 1.1644317
6.9725857 2.4811237 1.109813
7.0240574 2.4317758 1.1117613
7.761344 2.4054117 1.1407862
7.8869257 2.4279966 1.143018
7.9164724 2.4633958 1.1186365
10.099058 2.4886997 1.199886
10.164668 2.4410961 1.1252811
11.498098 2.4283719 1.1774602
11.506225 2.4144366 1.1942892
14.438824 2.447489 1.1483395
14.551264 2.4085002 1.1094507
14.606474 2.412549 1.1182599
14.875757 2.4015844 1.1057525
14.959112 2.4218793 1.107569
15.083809 2.4562268 1.1133111
15.174846 2.4918623 1.1285238
15.206681 2.4905496 1.1687343
6.8959293 2.5475349 1.165289
6.9396501 2.5130877 1.1204072
7.9656563 2.5186548 1.1169852
10.099073 2.527564 1.1980703
10.149887 2.5070944 1.1466937
11.486488 2.531271 1.1865064
14.372927 2.5512426 1.1299196
14.413464 2.5136166 1.13184
15.190275 2.51388 1.1097745
15.238566 2.5622299 1.1047406
15.305714 2.5938683 1.1557134
6.7936964 2.6924963 1.1872925
6.8674498 2.6173644 1.1123282
10.128766 2.6063061 1.1932346
15.25442 2.6277564 1.1106153
15.317614 2.6580615 1.1056052
15.402192 2.6961517 1.1854689
6.7878032 2.7134378 1.1782157
6.8105516 2.7251015 1.1055027
10.261583 2.7512367 1.1163633
11.397074 2.7596588 1.1378076
15.356979 2.7576277 1.1312332
15.402197 2.7913189 1.1339427
6.7902036 2.8737531 1.122327
10.294319 2.809571 1.1202084
10.332887 2.849762 1.1069056
11.280334 2.8943381 1.1220938
11.324772 2.8869505 1.1577891
15.388205 2.8596334 1.1055386
15.414049 2.8725028 1.128077
15.503544 2.8967242 1.1941835
6.7888651 2.9559796 1.1206797
10.283091 2.9239135 1.1573137
10.375391 2.920289 1.1473373
10.434607 2.9683795 1.1490318
11.179909 2.9935522 1.1488533
11.235874 2.9625642 1.1577386
11.309948 2.9052255 1.1626632
12.286999 2.9921808 1.1809903
12.361812 2.9347105 1.1138756
12.431118 2.9379106 1.1325003
12.569487 2.9744635 1.1805581
12.620196 2.9979839 1.166954
14.159911 2.974267 1.1412359
15.441219 2.9186668 1.1339223
15.503458 2.9855776 1.1066133
6.7796822 3.051681 1.1538826
10.372342 3.0111952 1.1463902
10.588699 3.0494375 1.1473676
10.68899 3.0657063 1.1178284
10.773109 3.0695548 1.1028304
10.845 3.0728023 1.1093529
10.93352 3.066129 1.1143824
11.04141 3.0447915 1.1246984
11.132357 3.0185075 1.1476111
12.163555 3.0693007 1.1618512
12.224319 3.0301731 1.1417109
12.675673 3.0552731 1.1431444
12.704079 3.0757298 1.1446588
14.139782 3.036727 1.1774386
15.479529 3.0747075 1.1090988
15.51635 3.0324218 1.106648
6.7737603 3.1198463 1.1763942
10.694842 3.1004078 1.1966019
10.780426 3.100909 1.1693376
10.843739 3.1006522 1.165791
10.914014 3.1013663 1.1773964
12.097213 3.1368995 1.1760671
12.115707 3.1079602 1.1791565
12.726812 3.1421456 1.1107823
14.147583 3.17735 1.18671
15.43123 3.1578467 1.1864321
15.519401 3.1113358 1.1155481
6.7694249 3.2085762 1.1413113
12.775233 3.2832079 1.1618615
12.812198 3.2564392 1.1399188
14.182101 3.2836947 1.1763202
14.209323 3.2809496 1.1507586
15.423685 3.2506347 1.1743336
15.512026 3.2222314 1.1030047
11.862486 3.3663647 1.1557946
11.974705 3.3266482 1.1623425
12.002178 3.3233862 1.1591655
12.742373 3.3710442 1.1355783
12.801445 3.3497787 1.1862842
14.196814 3.3366752 1.1970274
14.233072 3.368309 1.1447656
15.373308 3.321207 1.1812687
15.410839 3.3420208 1.1221325
15.504303 3.3085639 1.1067549
7.1069622 3.4802024 1.1260182
9.0976477 3.4894242 1.1394861
9.1183043 3.4796734 1.1395828
9.2456665 3.4444382 1.1283865
9.3131924 3.4290919 1.1299263
9.5839577 3.4810064 1.190701
9.6683788 3.4520524 1.1546206
9.7515144 3.4600363 1.1704963
9.8118067 3.4933536 1.1945055
12.74482 3.4534364 1.1262124
12.811308 3.474813 1.1487453
12.938282 3.4751437 1.1964893
14.25644 3.4363487 1.1913308
14.320759 3.4812369 1.1312873
15.293401 3.444756 1.1764331
15.328639 3.4082963 1.1496025
15.421607 3.4019878 1.1155047
7.1655412 3.5061464 1.119998
7.2324314 3.5290546 1.1158074
7.3100462 3.5647717 1.1424078
7.6225567 3.5457096 1.1492538
7.7289734 3.5204134 1.1802127
8.9797916 3.5845461 1.1463907
9.0279245 3.5518408 1.1107106
9.1289139 3.5132382 1.1030741
9.6855183 3.5071135 1.1081036
9.7567787 3.5479956 1.108775
9.8681507 3.5479965 1.1891224
9.9090967 3.5860362 1.1931295
12.833487 3.5520957 1.1258194
12.977752 3.5584249 1.1802573
14.376131 3.5614452 1.1825657
14.453804 3.5881848 1.1319935
14.50869 3.5997062 1.1044683
15.181732 3.5509484 1.1080778
15.229847 3.5133533 1.1111333
15.301695 3.5094359 1.1869695
8.906414 3.6830614 1.1170435
9.9631119 3.6739774 1.1801888
12.88476 3.6423337 1.1153387
12.914858 3.6829638 1.1136628
13.003691 3.6716743 1.1894035
14.487172 3.6325479 1.1856112
14.517699 3.6511416 1.1960049
14.621444 3.6872895 1.1934841
14.717178 3.6975875 1.1668913
14.860849 3.6933331 1.1462953
14.962635 3.6788816 1.1625757
15.076591 3.6231954 1.1315995
15.112438 3.6064458 1.1329885
15.202376 3.6086915 1.1831007
8.8556385 3.7421544 1.1514503
8.9009695 3.7022905 1.1029122
9.9836426 3.7191596 1.1570108
10.006993 3.7653606 1.1100944
12.914989 3.7510116 1.1101626
13.003493 3.7556176 1.1868215
14.688826 3.7027473 1.1946259
14.752729 3.7089419 1.1904974
14.839462 3.707294 1.1812247
14.921419 3.7042327 1.1957681
8.7850227 3.8634605 1.1854951
8.8083725 3.8016639 1.1937389
10.063961 3.8330629 1.1724374
12.888532 3.8671052 1.1055226
12.959574 3.8593369 1.166436
13.010731 3.8323281 1.1946399
8.7614288 3.959506 1.17268
10.084585 3.9816394 1.1872221
10.117044 3.9783216 1.1123084
12.864503 3.9647341 1.1305133
12.935451 3.9172997 1.1602833
13.009329 3.9229479 1.1964805
8.7512741 4.0659657 1.1610278
10.080872 4.0679564 1.1828192
10.12536 4.0346155 1.1060944
11.560413 4.0499096 1.1901661
11.623245 4.0822182 1.1059295
12.498909 4.0988469 1.1063827
12.520345 4.0835938 1.106679
12.688435 4.0983939 1.1255028
12.783831 4.0728426 1.1523433
12.840396 4.0394402 1.1604166
12.912525 4.0135903 1.1848309
8.7562075 4.1506925 1.1540692
10.063657 4.1603794 1.1688954
10.116934 4.1251855 1.1640422
11.584171 4.117095 1.1866417
11.640619 4.1867723 1.1735773
12.497758 4.1194019 1.1219743
12.503999 4.1462002 1.1566365
12.690669 4.1521211 1.1735331
12.750366 4.1097879 1.1618378
12.807581 4.1067848 1.1855066
10.043866 4.250206 1.1578403
10.114573 4.2468019 1.1023244
11.680361 4.2372537 1.1834154
11.725288 4.2823462 1.1914058
11.808437 4.2966766 1.1224656
12.342779 4.2875266 1.1441414
12.42275 4.2078819 1.1037918
12.519658 4.2071385 1.1982101
9.9878225 4.3694906 1.14776
10.010373 4.3281584 1.1487331
10.104258 4.3111639 1.1047741
11.691297 4.3137236 1.1924158
11.756153 4.3047562 1.192135
11.857813 4.3544354 1.1823686
11.961995 4.373466 1.1556973
12.071478 4.3844452 1.164632
12.174883 4.3489771 1.1260211
12.245619 4.3200932 1.1169268
12.352963 4.3083715 1.184943
12.408357 4.3100843 1.1961517
9.8917084 4.4946766 1.134755
9.9368114 4.42799 1.1214058
10.007539 4.4068584 1.1486279
11.984715 4.4000459 1.1919985
12.063655 4.4031167 1.1864089
12.126152 4.4034843 1.1880195
9.7732525 4.581851 1.1049739
9.8568153 4.5214524 1.1421355
9.9028358 4.5066576 1.1486
9.0805321 4.6506271 1.1803346
9.1900702 4.6736832 1.1165919
9.2268753 4.6859159 1.1151384
9.3087616 4.6953807 1.1002934
9.4998589 4.6897926 1.1051197
9.5596666 4.6813402 1.1167761
9.640934 4.6499653 1.1057553
9.7256603 4.6208014 1.1061716
9.8051615 4.6040063 1.1700866
9.1802387 4.7039299 1.1928651
9.2715111 4.7278328 1.1804492
9.3763533 4.7195606 1.1520698
9.4635859 4.7119198 1.1467525
9.5132751 4.7092757 1.1548884
9.6123562 4.7035151 1.1768899
8.4987135 -24.902239 1.2866185
8.5391798 -24.908283 1.2848861
8.6460009 -24.936708 1.2687145
8.7278461 -24.920967 1.2326818
8.825285 -24.947365 1.2674645
8.9280453 -24.92392 1.291142
8.3913097 -24.807178 1.2940717
8.46947 -24.828228 1.2652194
8.5456047 -24.876766 1.2597151
8.6547384 -24.893703 1.214776
8.7525415 -24.894844 1.2077926
8.9775076 -24.887909 1.285614
9.0191069 -24.860855 1.2935131
8.1754932 -24.701433 1.2876331
8.3612394 -24.713078 1.255141
8.4351568 -24.792721 1.2603211
8.993309 -24.794203 1.2147114
9.0849972 -24.783072 1.2878623
9.1190767 -24.734205 1.291579
7.9952126 -24.606819 1.2530154
8.0338802 -24.63612 1.2574353
8.1232758 -24.681952 1.2257141
8.3853607 -24.68902 1.21971
8.4011269 -24.682945 1.2034736
9.093277 -24.680851 1.2322419
9.1518221 -24.653593 1.2875452
7.8942885 -24.514786 1.2682661
7.9435415 -24.557137 1.2619166
9.0907345 -24.593765 1.2040291
9.1813288 -24.527912 1.2929511
7.8686056 -24.450134 1.211606
9.0913439 -24.439079 1.2075078
9.1847124 -24.427681 1.2911017
9.2033453 -24.403151 1.2941353
7.8466225 -24.317953 1.222926
9.1898899 -24.395824 1.2524034
9.2531252 -24.349213 1.2932836
11.182664 -24.313208 1.2009633
11.270518 -24.312489 1.2066135
11.31081 -24.319778 1.2115046
11.453382 -24.324287 1.2072539
11.506043 -24.303177 1.2114307
7.8484168 -24.289183 1.2069732
9.2947254 -24.289288 1.2818187
9.3305387 -24.233158 1.295032
10.994072 -24.203709 1.2822552
11.081499 -24.209946 1.2406414
11.157459 -24.23333 1.2177322
11.218931 -24.27516 1.2118499
11.344839 -24.272442 1.2619541
11.466835 -24.289545 1.2325028
11.526528 -24.276642 1.223157
11.618943 -24.200256 1.2037308
7.8940749 -24.101124 1.2761302
9.2977648 -24.190655 1.2121251
9.3717279 -24.125727 1.2958679
10.880625 -24.103741 1.2370027
10.949383 -24.157907 1.2732981
11.039546 -24.195518 1.246031
11.583077 -24.192091 1.2758939
11.624461 -24.177494 1.2806696
11.720352 -24.101933 1.2742823
14.582013 -24.102724 1.2871424
14.655992 -24.102364 1.236452
14.762289 -24.103806 1.2751201
14.828314 -24.105808 1.2857118
7.896183 -24.09635 1.2485083
7.9030342 -24.088821 1.2778385
9.3903389 -24.028603 1.2949339
10.786549 -24.011711 1.232718
10.8737 -24.090126 1.2179079
11.6975 -24.098141 1.2623683
11.744218 -24.085724 1.2775347
11.803617 -24.000015 1.2962927
14.390502 -24.005848 1.2579799
14.43055 -24.011204 1.2512159
14.525776 -24.051151 1.2145288
14.662894 -24.063366 1.2245984
14.764757 -24.076096 1.2154346
14.832699 -24.078293 1.2118075
14.916419 -24.080742 1.2488115
15.033098 -24.033058 1.2389848
15.10295 -24.002178 1.2945403
15.210938 -24.004826 1.2703189
7.9888449 -23.986382 1.2099085
8.0530529 -23.944637 1.2062283
8.1059113 -23.915314 1.2589706
9.3926659 -23.937061 1.2832212
10.695335 -23.905663 1.27265
10.758556 -23.974474 1.2277285
11.79512 -23.995277 1.2654421
11.856932 -23.918945 1.2954843
14.294476 -23.912708 1.2687194
14.388664 -23.970144 1.2335489
14.42981 -23.986401 1.210549
15.131354 -23.977192 1.2618189
15.209156 -23.90659 1.297003
15.302103 -23.906788 1.2290107
8.2933483 -23.888344 1.267571
8.3083563 -23.880302 1.2544241
9.2985458 -23.801125 1.209208
9.3887415 -23.888277 1.276994
10.684553 -23.874557 1.2605687
10.705705 -23.890078 1.2111605
11.889233 -23.852852 1.2919744
11.906574 -23.81431 1.2942817
14.19738 -23.806417 1.2786897
14.239318 -23.814421 1.2610819
15.276078 -23.822832 1.2976265
15.316587 -23.804699 1.2641124
8.336545 -23.782949 1.2051928
9.2891159 -23.717293 1.2777818
9.3412962 -23.785049 1.2277949
10.59836 -23.720076 1.2939963
10.638043 -23.758881 1.2627896
11.897219 -23.7943 1.2428136
11.920262 -23.772545 1.2947567
14.095824 -23.70636 1.2548605
14.183398 -23.730968 1.2783916
14.218028 -23.779251 1.2617621
15.296152 -23.790592 1.2916253
15.337642 -23.718817 1.2962989
8.3733292 -23.657356 1.2688504
8.4117222 -23.617935 1.2363552
9.1952467 -23.612692 1.2031511
9.294241 -23.677414 1.2510444
9.3071165 -23.695255 1.266806
10.598459 -23.6259 1.278172
10.616634 -23.673607 1.2684805
11.898135 -23.683907 1.2032924
11.954246 -23.629328 1.2919991
14.097206 -23.60622 1.2622653
14.146588 -23.663227 1.2742922
15.376934 -23.616451 1.2975371
15.402879 -23.682611 1.2826213
8.4755335 -23.544859 1.2533777
8.5139427 -23.510353 1.2481381
9.0935926 -23.502398 1.2342718
9.1540165 -23.536762 1.2498274
9.2149973 -23.580553 1.2709097
10.597627 -23.55076 1.2818553
10.611219 -23.591095 1.2495235
11.94568 -23.563225 1.260087
14.095406 -23.525953 1.2471211
14.117022 -23.555733 1.206692
15.386859 -23.569822 1.2884929
15.420697 -23.562382 1.2220953
8.5295477 -23.494652 1.2668321
8.6704178 -23.424646 1.2498243
8.7336998 -23.40608 1.2452518
8.9564629 -23.420406 1.2846663
9.0395231 -23.458057 1.283982
10.589388 -23.487217 1.2576309
10.639549 -23.464104 1.280673
11.897461 -23.417551 1.2178938
11.930611 -23.468994 1.2518286
14.097482 -23.433414 1.2165337
14.10188 -23.449942 1.2043617
15.381433 -23.47456 1.2279385
15.402982 -23.415718 1.2887428
8.7082386 -23.396206 1.2981305
8.8455353 -23.392784 1.2806091
10.637371 -23.339615 1.2710768
11.886297 -23.334717 1.2283903
11.907215 -23.385651 1.2476362
14.097117 -23.380323 1.2158023
14.100388 -23.332787 1.2163057
15.391243 -23.347971 1.2546868
15.401756 -23.381733 1.2829603
7.4921465 -23.203224 1.2701871
7.5281339 -23.204308 1.2642804
7.6721892 -23.227463 1.2250758
7.7304964 -23.234072 1.2403585
7.8382378 -23.226021 1.2521358
7.9171443 -23.213709 1.2779083
10.679358 -23.238544 1.271443
11.856067 -23.271036 1.231874
14.080526 -23.274014 1.2808691
14.110735 -23.244558 1.2261525
15.375808 -23.253906 1.2701083
15.402061 -23.293961 1.2993991
7.2977695 -23.103399 1.2843237
7.3663187 -23.111549 1.2160285
7.4429483 -23.154709 1.2152299
7.5242538 -23.194263 1.207029
7.9717059 -23.19348 1.2717236
8.0295067 -23.167992 1.2701415
8.1243286 -23.112 1.2767582
10.718419 -23.175434 1.2670943
11.782386 -23.140759 1.2592688
11.820316 -23.188782 1.2699394
14.083092 -23.149643 1.2575622
14.128902 -23.164093 1.2338381
15.296883 -23.102468 1.2093676
15.344755 -23.172829 1.2581952
7.194643 -23.005594 1.2849526
7.2609987 -23.036371 1.2053421
7.3392196 -23.095291 1.2074237
8.1439819 -23.07642 1.2168117
8.2130556 -23.035549 1.2669262
11.598393 -23.004326 1.2012792
11.671956 -23.02935 1.2634556
11.72295 -23.063341 1.2980639
13.092014 -23.002399 1.2860454
13.177904 -23.01379 1.2841343
13.262476 -23.015476 1.2206104
13.306826 -23.044729 1.2813168
13.41638 -23.04122 1.2259517
13.51552 -23.04348 1.2720835
13.61554 -23.006088 1.2153718
14.168656 -23.067316 1.2396435
14.203471 -23.006414 1.2261708
15.190444 -23.002356 1.2332784
15.285871 -23.047556 1.272953
15.310306 -23.076542 1.2941794
7.1398411 -22.905518 1.2709987
7.2185049 -22.994934 1.2081604
8.1814346 -22.992489 1.2899472
8.2397938 -22.977964 1.2127621
10.953392 -22.953556 1.2109389
11.042562 -22.909529 1.2523094
11.37682 -22.902225 1.2682046
11.431956 -22.909143 1.2554939
11.51671 -22.944309 1.2472095
12.98656 -22.910276 1.2602866
13.068821 -22.961237 1.2740307
13.156789 -22.994026 1.2488302
13.597708 -22.998734 1.2047527
13.632165 -22.996738 1.2150257
13.732344 -22.967167 1.2734944
13.805052 -22.917015 1.2646098
14.191565 -22.988678 1.2613571
14.250637 -22.945185 1.2556026
14.388802 -22.918947 1.2315327
14.4009 -22.909828 1.2309688
15.080578 -22.909954 1.2607391
15.162886 -22.91346 1.2501998
15.220462 -22.97797 1.2362037
7.0968194 -22.812933 1.2570174
7.1137266 -22.818556 1.2150096
8.2825069 -22.813019 1.2225842
8.3113098 -22.861979 1.2127893
11.096703 -22.899796 1.2099712
11.174575 -22.895638 1.2427115
11.233965 -22.889963 1.2171201
11.333202 -22.888916 1.2423046
11.401005 -22.89794 1.2538896
12.883783 -22.823397 1.2517151
12.948832 -22.869822 1.2144663
13.798467 -22.891687 1.2263767
13.858919 -22.862717 1.2440982
13.912169 -22.81016 1.2187243
14.295794 -22.890305 1.2659358
14.319122 -22.880396 1.2482369
14.457619 -22.854755 1.277122
14.58565 -22.846498 1.2286866
14.651841 -22.836164 1.2296784
14.710739 -22.831566 1.2315342
14.895608 -22.849825 1.2331909
14.985361 -22.805754 1.2229741
15.082531 -22.853254 1.2451267
15.130373 -22.882275 1.2601458
7.0895562 -22.751434 1.2052665
8.2901382 -22.799076 1.2221298
8.3318472 -22.720474 1.269031
12.792459 -22.715357 1.2734953
12.828794 -22.735023 1.2156024
13.895781 -22.797527 1.22493
13.924809 -22.760006 1.2166206
14.448479 -22.780739 1.2533588
14.580885 -22.736633 1.2874714
14.65027 -22.74571 1.2244529
14.780491 -22.730625 1.2881477
14.872584 -22.766558 1.2218673
14.958776 -22.791538 1.2301921
15.00824 -22.797237 1.293833
7.0620842 -22.637823 1.2043409
8.3573742 -22.625154 1.2898391
12.78347 -22.678715 1.2446287
13.971973 -22.677727 1.2112013
14.01033 -22.629015 1.2843289
7.0535288 -22.545736 1.2062926
8.3521919 -22.570715 1.2629995
12.698685 -22.515541 1.2153738
12.790154 -22.530838 1.225552
12.805218 -22.531393 1.2034495
13.996601 -22.578665 1.2061387
14.024508 -22.573273 1.2625347
7.0573664 -22.456528 1.2070835
12.696886 -22.46806 1.2036053
12.779842 -22.447109 1.2146541
14.026486 -22.428596 1.2019179
7.0726366 -22.372328 1.2063553
8.3147106 -22.363594 1.2873131
12.690895 -22.334755 1.2563057
12.752932 -22.350403 1.224525
14.029471 -22.372732 1.2018466
7.0960655 -22.281551 1.2214055
7.114747 -22.244745 1.2122505
8.2860947 -22.220991 1.27718
8.3163471 -22.284561 1.2837148
12.695122 -22.270458 1.2519462
12.774891 -22.261658 1.2216238
14.036602 -22.218369 1.2916272
7.1611576 -22.158949 1.2185054
7.2037406 -22.104107 1.2011869
8.2385864 -22.176582 1.2346088
12.773062 -22.153671 1.234288
12.804453 -22.124855 1.2273152
13.998159 -22.112062 1.2651527
14.02006 -22.158028 1.2857959
7.1932912 -22.088268 1.2437422
7.2509475 -22.051544 1.2101432
8.1492329 -22.063301 1.2851133
12.799931 -22.093224 1.2748771
12.836241 -22.051285 1.2209553
13.993954 -22.091499 1.2798988
14.000572 -22.096367 1.2961011
7.3463502 -21.995789 1.252671
7.4387894 -21.905712 1.2540889
7.5311537 -21.91996 1.2675983
7.663394 -21.923424 1.2114785
7.7140722 -21.926441 1.2072144
11.211221 -21.904238 1.2897615
11.389416 -21.913811 1.2939858
11.421953 -21.909126 1.2960129
12.870667 -21.983311 1.2485271
12.916169 -21.924744 1.2269155
13.8862 -21.93195 1.2285218
13.932119 -21.97084 1.2927489
7.475327 -21.894871 1.2293828
7.5407114 -21.875988 1.21841
7.6156054 -21.879616 1.2470427
7.7263384 -21.8993 1.2676508
11.09336 -21.806498 1.2770436
11.186769 -21.807589 1.2283891
11.244954 -21.818794 1.2164239
11.359178 -21.859825 1.2368219
11.466424 -21.8339 1.2177223
11.532482 -21.836828 1.2472472
11.619907 -21.817612 1.2971773
11.700224 -21.801596 1.2980549
12.888902 -21.837427 1.2744939
12.987547 -21.842403 1.2099698
13.767118 -21.814186 1.2369889
13.831393 -21.86997 1.2327061
10.992359 -21.781994 1.2764928
11.086592 -21.751099 1.2385548
11.125298 -21.761955 1.2230161
11.582472 -21.795246 1.2322271
11.655111 -21.750366 1.2479384
11.714183 -21.716171 1.294771
12.994385 -21.767735 1.2802695
13.056099 -21.753597 1.2501655
13.134758 -21.729053 1.222219
13.583302 -21.714417 1.2443999
13.672898 -21.752275 1.2521098
13.71398 -21.782436 1.2228082
10.791646 -21.604534 1.2453058
10.834836 -21.606087 1.2307558
10.927797 -21.627594 1.2235353
11.061514 -21.656815 1.2147013
11.100672 -21.662792 1.2075746
11.696812 -21.691069 1.2538345
11.752364 -21.656954 1.2969092
13.187065 -21.693096 1.2681214
13.27166 -21.675655 1.2731912
13.340696 -21.682858 1.2070625
13.434929 -21.687017 1.2246033
13.542073 -21.690826 1.2950108
15.182664 -21.628119 1.2915171
15.245317 -21.612616 1.2725055
15.37429 -21.648598 1.2631742
15.467276 -21.639648 1.2486242
15.523768 -21.605972 1.2150726
15.617256 -21.622143 1.2584468
15.703996 -21.601404 1.2996813
15.805469 -21.619911 1.2907488
10.691449 -21.52055 1.2246939
10.733532 -21.520739 1.2285564
10.81769 -21.582354 1.2251157
11.752412 -21.580578 1.2548487
15.176114 -21.556065 1.2494013
15.242262 -21.581299 1.2152463
15.590897 -21.595518 1.2222681
15.631147 -21.564943 1.2130594
15.713425 -21.513756 1.2201502
15.803971 -21.502321 1.2929647
10.664475 -21.432056 1.2179015
10.706683 -21.495132 1.2373563
11.75939 -21.482616 1.2366116
14.973341 -21.412094 1.2190402
15.051135 -21.416754 1.2042221
15.736813 -21.495888 1.225685
15.805681 -21.476616 1.2731079
10.549905 -21.310474 1.247154
10.630466 -21.357454 1.2138001
11.797757 -21.337624 1.2715361
11.825359 -21.318052 1.2795775
14.780803 -21.332649 1.2153466
14.851235 -21.37521 1.2128631
14.903171 -21.397488 1.2164829
15.79279 -21.381052 1.2057729
15.847448 -21.394741 1.27527
15.92405 -21.399179 1.2987413
10.556746 -21.239864 1.2077844
10.608383 -21.234789 1.209567
11.877988 -21.244431 1.2572234
14.69265 -21.246126 1.2173142
14.716309 -21.276268 1.2210407
15.865785 -21.267242 1.2526226
9.0903435 -21.104851 1.2073395
9.1774588 -21.113634 1.225067
9.2638578 -21.119564 1.2189825
9.3169336 -21.112598 1.2237487
10.593102 -21.117825 1.2164984
10.616641 -21.143539 1.2043264
11.891507 -21.192667 1.2294673
11.945181 -21.108273 1.2404779
14.645773 -21.160635 1.2128406
15.869638 -21.11726 1.2497447
15.908808 -21.104736 1.292846
8.7820911 -21.023108 1.2726524
8.8949575 -21.039434 1.2241986
8.9712992 -21.054586 1.2061197
9.0459242 -21.073181 1.2152579
9.1194134 -21.076145 1.2887187
9.2041492 -21.082964 1.2965318
9.3650303 -21.093874 1.2245234
9.4405508 -21.048313 1.2186468
10.64302 -21.062778 1.2060244
11.969794 -21.058411 1.2454035
12.017695 -21.048243 1.2289579
14.618793 -21.052307 1.2113855
15.896366 -21.074318 1.200932
15.919108 -21.093079 1.2909582
16.017284 -21.004423 1.2714889
8.6379929 -20.918373 1.2882949
8.7681475 -20.924366 1.2095816
8.8316689 -20.965408 1.2027479
9.4972305 -20.994072 1.2101121
9.5590649 -20.93367 1.202101
9.6312332 -20.923763 1.2856375
10.684746 -20.986202 1.2120823
10.712893 -20.950533 1.2207668
11.981655 -20.956182 1.2297082
12.005353 -20.92255 1.2046473
14.618209 -20.973259 1.2088594
15.979002 -20.991341 1.2338145
16.019384 -20.940418 1.2574122
8.5736904 -20.844765 1.2913976
8.6764593 -20.832319 1.202414
8.7184916 -20.884285 1.2139232
9.5924721 -20.887314 1.2128856
9.6804638 -20.866585 1.2676374
9.7233992 -20.826799 1.2890542
10.778874 -20.891693 1.2386909
10.825191 -20.865122 1.2260145
10.945192 -20.819569 1.2367122
11.964929 -20.85681 1.2063031
12.003953 -20.893894 1.21154
16.043331 -20.88447 1.2505219
6.5833979 -20.709145 1.2848926
6.6574626 -20.729748 1.2743648
8.5917578 -20.714619 1.2045269
8.6255455 -20.76432 1.2020974
9.6852541 -20.766182 1.2376325
9.732729 -20.751135 1.260379
10.946699 -20.784126 1.2456393
11.925079 -20.723553 1.2047415
14.721731 -20.744423 1.2679803
16.075928 -20.755472 1.2453012
16.102652 -20.718678 1.2866049
6.543808 -20.691954 1.2962031
8.5689831 -20.662415 1.2011683
9.7442379 -20.653072 1.2426286
10.96266 -20.685394 1.2729613
11.883471 -20.604082 1.2197708
11.941046 -20.656214 1.2732704
16.087288 -20.651134 1.2742983
16.102558 -20.665699 1.2945857
6.4951773 -20.583279 1.2903786
6.5846925 -20.53982 1.2587845
6.6147747 -20.566582 1.2468995
6.9719 -20.543486 1.2942545
7.0398788 -20.565556 1.2906978
7.1153932 -20.537891 1.2827156
8.5341034 -20.574242 1.2015333
9.7736349 -20.554754 1.2388513
11.033678 -20.553364 1.2685277
11.841915 -20.540695 1.2571232
11.904299 -20.579891 1.2795337
16.067993 -20.542515 1.2722746
6.5651054 -20.481125 1.2811426
6.7222967 -20.491646 1.2868952
7.0960755 -20.454491 1.2160797
7.1884222 -20.437256 1.2686694
7.2273955 -20.492102 1.2992406
7.3064747 -20.432293 1.2854474
8.5121098 -20.485304 1.2023449
9.7897682 -20.468597 1.2442464
11.149056 -20.433079 1.2610811
11.579699 -20.403288 1.2459395
11.65957 -20.41292 1.257452
11.775738 -20.472837 1.2544112
11.806209 -20.494499 1.2752646
15.995198 -20.406935 1.2317171
16.038324 -20.477417 1.2541354
6.9890962 -20.366905 1.2055552
7.0199065 -20.3479 1.2081072
7.2863555 -20.388384 1.2632492
7.3243098 -20.367975 1.2679098
11.472345 -20.336662 1.2872055
11.542069 -20.39069 1.2651281
11.661508 -20.392603 1.2669284
15.068751 -20.308325 1.2818851
15.986107 -20.341261 1.2951281
16.017157 -20.389351 1.2907736
7.0791426 -20.214073 1.246472
15.098639 -20.275551 1.2716614
15.142662 -20.241327 1.2867017
15.209658 -20.209709 1.2292212
15.785774 -20.207933 1.207777
15.893575 -20.240427 1.2988135
15.940474 -20.285179 1.2977312
6.982192 -20.170536 1.285983
7.0413218 -20.179546 1.2607853
7.3065052 -20.140213 1.2904711
8.5294094 -20.147366 1.268738
13.965487 -20.118515 1.2873846
14.054956 -20.129454 1.2923874
14.172046 -20.125748 1.2957178
14.228284 -20.116854 1.2903637
14.324528 -20.109613 1.2903206
15.225971 -20.191982 1.2468615
15.347338 -20.126219 1.2918644
15.418325 -20.109596 1.2948697
15.512783 -20.101404 1.2981441
15.618704 -20.110008 1.2976797
15.770808 -20.161921 1.2956638
15.826225 -20.192022 1.2970135
6.9969778 -20.087439 1.2995415
7.07623 -20.090836 1.294242
7.242249 -20.095959 1.2932
8.5810833 -20.061298 1.2644629
8.6190319 -20.01149 1.2704318
13.691315 -20.001467 1.2568715
13.756651 -20.042713 1.2666608
13.850956 -20.086308 1.2758569
14.294138 -20.098732 1.2680539
14.359617 -20.076387 1.2804632
14.433072 -20.043255 1.2931309
14.506975 -20.007217 1.2872124
8.6657486 -19.963491 1.2596731
8.7127266 -19.91283 1.2825967
13.58536 -19.913258 1.2619624
13.65299 -19.937244 1.2408564
14.491556 -19.979307 1.2054052
14.569783 -19.915478 1.2155616
14.605097 -19.903376 1.2721454
8.7720871 -19.873842 1.274038
8.8560543 -19.815649 1.2934444
13.567896 -19.852318 1.2470543
13.612774 -19.88792 1.2384474
14.598465 -19.89151 1.2286428
14.666265 -19.825733 1.2697154
14.717974 -19.875835 1.26142
8.9399967 -19.781651 1.2979108
9.0433321 -19.757277 1.2772865
9.1121521 -19.752975 1.2071903
13.538994 -19.793648 1.2358465
14.689272 -19.761721 1.2182691
14.713586 -19.712254 1.2195489
13.474209 -19.653648 1.2207841
14.750196 -19.660091 1.2712828
14.803569 -19.660149 1.2719506
9.8821945 -19.506577 1.233979
9.9731903 -19.529198 1.2300835
10.02846 -19.547821 1.2323571
10.15097 -19.560669 1.2305763
10.21707 -19.557106 1.2300063
10.329804 -19.523802 1.2353696
14.784212 -19.534046 1.2785649
7.7275057 -19.436607 1.2010652
9.7914858 -19.405291 1.2206734
9.8718328 -19.474892 1.2260636
9.9002647 -19.494389 1.2281147
10.456556 -19.413246 1.219738
13.43494 -19.444309 1.2070023
14.788509 -19.448856 1.2600911
14.801075 -19.446136 1.2965524
7.5746288 -19.323559 1.2071134
7.6287198 -19.361717 1.2039788
9.6692152 -19.318453 1.2251256
9.7776079 -19.379215 1.2144141
9.8662386 -19.36018 1.2083995
9.9097977 -19.397602 1.2003939
10.482319 -19.360809 1.2039244
10.507185 -19.322792 1.2060639
13.441166 -19.35601 1.2036773
14.777638 -19.3526 1.2333559
7.4825354 -19.229441 1.2041705
7.5285983 -19.280041 1.2041453
9.5517311 -19.253222 1.2435141
10.524137 -19.278193 1.2042297
13.524172 -19.215954 1.2141159
14.765922 -19.280441 1.2338831
7.3971305 -19.106998 1.2113143
7.4262624 -19.149601 1.2036092
8.5276051 -19.109367 1.2500319
8.6280727 -19.121347 1.2632253
9.471756 -19.181198 1.2597774
13.544313 -19.159813 1.2251074
14.695061 -19.121946 1.2053092
14.745652 -19.188271 1.2771379
7.3807535 -19.063349 1.2038672
8.6289368 -19.026867 1.2138065
13.59534 -19.061743 1.2487841
13.641571 -19.00919 1.2317837
14.672163 -19.040112 1.2697079
14.702114 -19.097237 1.2633966
7.3446484 -18.957926 1.2040284
8.644289 -18.954672 1.218978
13.675978 -18.973801 1.2326639
13.762437 -18.918766 1.2043966
14.575272 -18.934395 1.2519929
14.621717 -18.979885 1.2577152
7.3261142 -18.860245 1.2057137
8.6424398 -18.880495 1.2060355
9.3744459 -18.819988 1.2234743
13.788317 -18.893398 1.2326798
13.838933 -18.868521 1.2222273
13.926875 -18.829201 1.2262838
14.009218 -18.802191 1.2554173
14.253904 -18.801311 1.2052367
14.384108 -18.812 1.2329968
14.470905 -18.856255 1.233413
14.523842 -18.892643 1.237908
8.6278458 -18.752865 1.2024099
9.3921957 -18.786386 1.2175131
9.4362316 -18.728281 1.2069061
10.736481 -18.777214 1.299956
14.08166 -18.795616 1.2085559
14.141392 -18.792044 1.2059456
14.286265 -18.75428 1.2872514
14.34925 -18.782982 1.2589618
15.589161 -18.702591 1.2505486
15.679434 -18.713154 1.2664096
15.779343 -18.705717 1.2439932
15.815903 -18.705948 1.2617962
15.905819 -18.700989 1.2949966
8.5865002 -18.618767 1.2051674
8.615962 -18.687593 1.215046
10.761541 -18.636612 1.2925475
15.383867 -18.619854 1.2198844
