# .PCD v0.7 - Point Cloud Data file format
VERSION 0.7
FIELDS x y z
SIZE 4 4 4
TYPE F F F
COUNT 1 1 1
WIDTH 1530
HEIGHT 1
VIEWPOINT 0 0 0 1 0 0 0
POINTS 1530
DATA ascii
6.7584052 -1.4754143 0.99575269
6.8493843 -1.4708745 0.97945589
6.9028702 -1.4811983 0.91118437
6.493278 -1.3911074 0.92374063
6.5843906 -1.3519375 0.93917149
6.6020684 -1.3621348 0.93644857
6.7164712 -1.3940197 0.96353215
6.5879555 -1.2811711 0.92933202
6.6087112 -1.2639135 0.91496921
6.6590204 -1.8081231 1.0856347
6.5931845 -1.7886525 1.0925041
6.6547842 -1.7407608 1.0802076
6.7057724 -1.7041646 1.0478609
6.3995833 -1.6427813 1.0033712
6.4340248 -1.606933 1.0737646
6.5543833 -1.6479603 1.0429199
6.6480837 -1.6899991 1.014925
6.7108736 -1.6985421 1.04264
6.3964386 -1.5668299 1.0563245
6.4414024 -1.5340629 1.0063926
6.5120544 -1.5092773 1.0296319
6.8481827 -1.5133016 1.0573081
6.9239197 -1.5069611 1.0636125
6.4747229 -1.4944696 1.015058
6.5658832 -1.476758 1.0753613
6.6579399 -1.4605048 1.0927024
6.7448945 -1.4273983 1.097858
6.8515816 -1.472277 1.0933928
6.9081039 -1.4779994 1.0247011
7.0066061 -1.4815252 1.0401444
6.5633821 -1.3305898 1.0517988
6.6127791 -1.3383279 1.0496367
6.709938 -1.3811659 1.0915488
6.5426712 -1.2900983 1.0963132
6.6336422 -1.1548414 1.0945137
6.5690928 -1.7176976 1.1504743
6.6242952 -1.7397472 1.1115122
6.7089815 -1.701502 1.1447558
6.397593 -1.6340504 1.1428608
6.4743366 -1.612815 1.1833857
6.5740814 -1.6477385 1.1738091
6.6199384 -1.6639235 1.1696547
6.7038527 -1.6899221 1.1611301
6.3934116 -1.5779018 1.1849014
6.4300079 -1.5961784 1.1876113
6.5203247 -1.5693119 1.1718332
6.6347828 -1.5717844 1.1564488
6.7726383 -1.5813662 1.1907349
6.8427415 -1.5140803 1.1684418
6.9454737 -1.5404133 1.1255723
6.4896212 -1.484797 1.184283
6.5082955 -1.468069 1.1830585
6.6776876 -1.4467452 1.1477813
6.7257075 -1.4087375 1.1968517
6.8200698 -1.4481302 1.1953371
6.9044943 -1.4712157 1.1545386
6.5791979 -1.337387 1.1789536
6.6019888 -1.3489542 1.1768732
6.703619 -1.3959138 1.1822364
6.5686884 -1.2898095 1.1812789
6.6198573 -1.2332782 1.1501106
6.6075058 -1.1834264 1.1188426
6.6805787 -1.7041137 1.2403307
6.7051935 -1.7029111 1.2542856
6.3957143 -1.6461411 1.2778375
6.4658184 -1.6123834 1.213784
6.5427341 -1.6383145 1.2407095
6.6583166 -1.6910145 1.2094431
6.7019873 -1.6962105 1.2475133
6.3718357 -1.5673585 1.2877092
6.4312711 -1.5602398 1.2082474
6.5060725 -1.5982555 1.2452778
6.7389121 -1.5878577 1.2988691
6.807838 -1.5073296 1.2975827
6.4859405 -1.4791355 1.2048717
6.509367 -1.4644299 1.2134092
6.6904659 -1.4019878 1.2220693
6.7708378 -1.4052637 1.2874377
6.8593121 -1.4678826 1.2948112
6.9096394 -1.45561 1.28285
6.5764947 -1.3512578 1.2035127
6.6130486 -1.3250761 1.2224753
6.7504683 -1.3916039 1.2876682
6.6497569 -1.2868965 1.240815
6.6400318 -1.8025771 1.3296759
6.5857582 -1.7493181 1.3570075
6.6208792 -1.7543371 1.3439002
6.7029395 -1.7020267 1.3274288
6.4705772 -1.6121951 1.3410246
6.5733423 -1.6416008 1.3560171
6.6291695 -1.6716329 1.3929424
6.7113862 -1.6936707 1.3689694
6.3655396 -1.54949 1.3540592
6.4730644 -1.5654373 1.3486171
6.5353804 -1.5602353 1.3735414
6.6488414 -1.5582952 1.3901012
6.7948246 -1.5829976 1.3505356
6.8247256 -1.5327538 1.3343441
6.3550615 -1.4796252 1.328079
6.4830022 -1.4822395 1.3852365
6.5745034 -1.4855176 1.3713109
6.6692071 -1.4759318 1.3445847
6.7926002 -1.4955424 1.3466878
6.8741522 -1.467469 1.3456159
6.9102254 -1.4542253 1.3459616
6.4889464 -1.3773863 1.3834882
6.5101318 -1.3541548 1.3934255
6.6061535 -1.332778 1.3301883
6.759459 -1.3928295 1.3548701
6.5779371 -1.2472146 1.3865254
6.6042023 -1.2410285 1.3907657
6.6154017 -1.1813962 1.358139
6.6741133 -1.7015519 1.4343421
6.71766 -1.7009262 1.4401104
6.3941355 -1.6235878 1.4153886
6.4645576 -1.6072433 1.4199078
6.5238552 -1.6294037 1.4162612
6.6207819 -1.662132 1.41048
6.7056756 -1.695451 1.4463947
6.3886805 -1.5672584 1.4563782
6.4374304 -1.5963898 1.4212365
6.5477853 -1.5939994 1.4215579
6.6161175 -1.5841708 1.4455805
6.7932425 -1.5793335 1.4822869
6.8314209 -1.5354278 1.4550221
6.4811125 -1.4637721 1.4203875
6.5046201 -1.4479181 1.4188814
6.687892 -1.4901028 1.4288306
6.7931299 -1.4945018 1.464668
6.8616829 -1.471977 1.4433839
6.904995 -1.4690946 1.4383316
6.4867964 -1.3753629 1.4109108
6.5878897 -1.3406858 1.4157856
6.6010122 -1.3473756 1.4151254
6.756813 -1.3890567 1.4591599
6.8886929 -1.3947718 1.4848242
6.9003148 -1.3945594 1.4900694
6.5762053 -1.2936864 1.4210589
6.6290255 -1.258351 1.4507005
6.5741091 -1.7363492 1.5630848
6.6347437 -1.7705635 1.5734463
6.7033787 -1.7037745 1.5078156
6.4617057 -1.6114602 1.5703568
6.5482054 -1.6405883 1.5842984
6.6235323 -1.6730435 1.58813
6.7036257 -1.6944625 1.5831816
6.3905821 -1.5899477 1.5266597
6.474237 -1.5855408 1.5767863
6.5097809 -1.5972172 1.5127523
6.6079097 -1.5977936 1.5530071
6.7949696 -1.5908146 1.5455701
6.8219738 -1.5538821 1.5617318
6.364583 -1.487543 1.5603168
6.4658251 -1.4829909 1.5535107
6.5554161 -1.4286 1.5810344
6.6198268 -1.4467082 1.5741882
6.7911339 -1.4963293 1.5451047
6.8639374 -1.475342 1.5528662
6.9066954 -1.4561524 1.5694177
6.5662489 -1.3827186 1.5828249
6.6203542 -1.3163161 1.5216606
6.7483358 -1.3782057 1.5482049
6.8264313 -1.3962231 1.57777
6.5116773 -1.2766556 1.5835919
6.6247091 -1.1547737 1.5864546
6.5587873 -1.7078253 1.6101682
6.6385679 -1.7067096 1.6328695
6.3985815 -1.601666 1.6307254
6.4607959 -1.6076796 1.6545167
6.5269737 -1.6256714 1.6531906
6.6065874 -1.6492429 1.6473351
6.7025113 -1.6889013 1.6820397
6.2958798 -1.5121844 1.6760621
6.3986149 -1.5778166 1.6561923
6.4227934 -1.5937699 1.6551163
6.5259056 -1.5619764 1.6316118
6.6201649 -1.5695846 1.6205337
6.7928333 -1.5903214 1.6319027
6.8347631 -1.5164928 1.6460178
6.4933023 -1.4658976 1.6540699
6.5040116 -1.469378 1.6537945
6.6621037 -1.4520881 1.6539335
6.7938437 -1.4957761 1.636538
6.8741446 -1.4674346 1.6660371
6.9033413 -1.4510783 1.680532
6.5929608 -1.342659 1.6525252
6.6019363 -1.3480062 1.6522498
6.7629552 -1.3860627 1.6454704
6.8099151 -1.3973932 1.6384315
6.9079571 -1.3941774 1.6984205
6.566967 -1.2882104 1.651819
6.6106844 -1.2368543 1.6363354
6.6165657 -1.1869999 1.603379
6.6266975 -1.7056961 1.7868373
6.7194576 -1.7006443 1.7194946
6.4338913 -1.6037095 1.737129
6.5400085 -1.6325139 1.7211943
6.6504474 -1.6759026 1.7497218
6.7094078 -1.6877222 1.7185309
6.3883114 -1.579962 1.7235911
6.42484 -1.5674582 1.7709284
6.5067782 -1.5961272 1.7483056
6.6116867 -1.5748639 1.7283175
6.7960815 -1.5797324 1.7363937
6.8220782 -1.5328974 1.7568936
6.3965611 -1.4989626 1.7944388
6.4725237 -1.4812245 1.7040424
6.514082 -1.4646215 1.7368693
6.676754 -1.4073567 1.7065153
6.792861 -1.4937234 1.7754571
6.868175 -1.4735024 1.7747533
6.9078293 -1.4550327 1.7083068
6.5759659 -1.3494666 1.7696495
6.6131649 -1.3124323 1.7861264
6.7526073 -1.3800769 1.7430398
6.8116884 -1.3977602 1.7471812
6.9029431 -1.3938775 1.7052536
6.5502415 -1.2823169 1.7980504
6.6593714 -1.2637483 1.726481
6.6479421 -1.1499753 1.7956998
6.5651588 -1.7434657 1.819041
6.623661 -1.7473936 1.8250282
6.7210102 -1.7092814 1.814306
6.3945723 -1.613662 1.84901
6.4717269 -1.6061077 1.8188031
6.5704575 -1.6850644 1.8358514
6.6234617 -1.6762271 1.8512831
6.71103 -1.6842644 1.8736572
6.2769637 -1.5119164 1.8996649
6.3962727 -1.5736525 1.8866539
6.4110475 -1.5784843 1.8876152
6.5062466 -1.5820894 1.8201201
6.6066947 -1.5965722 1.823802
6.7925844 -1.5846492 1.8462963
6.8092861 -1.5524499 1.8442764
6.2882786 -1.4948519 1.8430789
6.319931 -1.4936314 1.873035
6.4931059 -1.4581224 1.8881311
6.5045309 -1.4549172 1.888268
6.6582484 -1.4546859 1.8298235
6.7950735 -1.4962173 1.8512654
6.8649969 -1.4795617 1.8465922
6.9102888 -1.4546435 1.8463414
6.5882359 -1.329011 1.8889065
6.6041498 -1.3435113 1.8895504
6.7673745 -1.3816401 1.8419378
6.8083634 -1.3975084 1.8416913
6.5761428 -1.2911112 1.8872273
6.6068296 -1.2716997 1.8884234
6.6258259 -1.1870761 1.8526325
6.6450348 -1.7083127 1.9326961
6.7116694 -1.7023528 1.9296486
6.3972893 -1.6140816 1.9495234
6.4688358 -1.6091169 1.9688847
6.5553865 -1.631685 1.9746654
6.6731625 -1.6782267 1.9721863
6.7025394 -1.6863518 1.9397802
6.3940573 -1.5592306 1.9332256
6.4181881 -1.5797067 1.9087679
6.504107 -1.5946103 1.9586141
6.616137 -1.5970627 1.9618397
6.7930584 -1.581861 1.9276059
6.8183236 -1.5324188 1.941787
6.3166685 -1.4875233 1.9398756
6.4944267 -1.4592274 1.9087782
6.5041857 -1.4593532 1.9306672
6.6949959 -1.4077563 1.9161911
6.7917418 -1.4906383 1.9153435
6.8654237 -1.4728737 1.9461091
6.9061413 -1.4422851 1.980814
6.5908833 -1.3397962 1.9099615
6.6108971 -1.3176656 1.9106095
6.7653589 -1.3815531 1.9424996
6.8266792 -1.39634 1.9614909
6.9335804 -1.3965535 1.9207759
3.2577438 -0.50466776 0.42917329
3.5380187 -0.51989681 0.48280889
3.2774673 -0.49446487 0.46206397
3.498436 -0.46003395 0.49606127
3.5313501 -0.41485077 0.48679954
3.4956007 -0.35556418 0.49633378
3.5191164 -0.36162564 0.49656004
3.1814365 -0.23304439 0.42634088
3.2338028 -0.2294011 0.41646177
3.3680487 -0.24468255 0.43161935
3.4891038 -0.21678554 0.46075886
3.5026417 -0.23028779 0.43460995
3.2542343 -0.62584829 0.50665277
3.4699638 -0.63964534 0.55842012
3.5185425 -0.61882412 0.55892628
3.2540302 -0.50936568 0.58783561
3.337224 -0.50834888 0.57523662
3.4854679 -0.55015814 0.55870849
3.5575757 -0.53386492 0.58591157
3.1910956 -0.46606159 0.56071895
3.2607293 -0.49502087 0.54994756
3.3058395 -0.49850869 0.56385678
3.4948831 -0.47377279 0.52350384
3.5502 -0.41392088 0.58116919
3.4807534 -0.34806681 0.51770884
3.5397534 -0.38309613 0.57383543
3.1907554 -0.21534359 0.53302246
3.2093072 -0.25093454 0.55460936
3.3938465 -0.24840325 0.56872612
3.4919734 -0.2483198 0.57865292
3.50666 -0.24559841 0.58072597
3.2395542 -0.61287594 0.66765553
3.2836542 -0.51192945 0.65377194
3.4414046 -0.51963967 0.67136687
3.5659335 -0.51857072 0.67822438
3.2366724 -0.47455847 0.67218953
3.4972401 -0.44730186 0.6809873
3.548173 -0.45114163 0.62057859
3.4774356 -0.32950199 0.67575496
3.5403347 -0.37055004 0.65947181
3.1809959 -0.23356989 0.61151868
3.2346675 -0.22980501 0.60672575
3.3804755 -0.24674565 0.61908072
3.4896083 -0.23563191 0.62076193
3.5204144 -0.2465419 0.65373856
3.5250726 -0.62906349 0.72453457
3.2744 -0.50394499 0.77184254
3.3852775 -0.50916183 0.77798682
3.4549618 -0.53722256 0.79414016
3.53793 -0.56696856 0.7493003
3.6271067 -0.56169254 0.741386
3.2469633 -0.48473376 0.75286084
3.3400764 -0.43152809 0.78529006
3.4367404 -0.4350307 0.74912745
3.5375979 -0.42375264 0.77031916
3.2936211 -0.34827727 0.79760164
3.3037424 -0.34759888 0.7871477
3.4884946 -0.32313061 0.71422297
3.5408988 -0.3876819 0.77349406
3.1783881 -0.22393131 0.75991231
3.2749815 -0.26410288 0.79810864
3.3642371 -0.23321849 0.7434116
3.4958658 -0.22879551 0.73365706
3.5123756 -0.24098127 0.78693157
3.2430317 -0.1564772 0.79686362
3.2364182 -0.60713053 0.83127415
3.5299072 -0.61859119 0.88507408
3.1419034 -0.56979322 0.82982188
3.2831759 -0.50285017 0.87304693
3.3088183 -0.51127946 0.82572764
3.4594908 -0.54568148 0.87479001
3.5225835 -0.5395149 0.81563556
3.6061611 -0.54863828 0.85864788
3.2681451 -0.41712993 0.87987363
3.3018088 -0.45829272 0.83456868
3.4517179 -0.48077476 0.87612695
3.557122 -0.43235967 0.89607602
3.2551115 -0.35500962 0.88501459
3.3502834 -0.34471238 0.88689667
3.4762149 -0.31572932 0.86055988
3.5467401 -0.39031911 0.84881294
3.646615 -0.32426906 0.86278015
3.1949697 -0.22659934 0.85470158
3.2419591 -0.26583335 0.89049286
3.3276381 -0.20912912 0.86822814
3.4926524 -0.2193606 0.8678059
3.5034437 -0.24557717 0.88676006
3.6218119 -0.28759712 0.86863726
3.1868448 -0.17784913 0.87740552
3.2238848 -0.1960547 0.89117366
3.469305 -0.19131792 0.84003443
3.6028311 -0.60236239 0.93971795
3.285172 -0.50296974 0.99774754
3.3029747 -0.5150156 0.99288553
3.429585 -0.55904275 0.91110921
3.533484 -0.53947639 0.93462604
3.6227303 -0.52427047 0.96701497
3.2789335 -0.4652552 0.99952573
3.3033018 -0.43979484 0.94150883
3.419801 -0.49204123 0.93956453
3.5641611 -0.48108453 0.94107395
3.240737 -0.32774326 0.90333819
3.3064704 -0.33919451 0.91835594
3.4821641 -0.33845532 0.95197791
3.5425043 -0.38474828 0.94117969
3.6261621 -0.30146146 0.99201566
3.1981125 -0.20770273 0.90321892
3.2079782 -0.20976645 0.90081573
3.3799653 -0.23214507 0.90564209
3.4967136 -0.23390874 0.97790617
3.5126045 -0.27983096 0.97625434
3.6072798 -0.26713908 0.99037009
3.2194324 -0.17623158 0.99237216
3.2628288 -0.61473656 1.0170498
3.4915481 -0.62739563 1.0192664
3.5253155 -0.6176579 1.0463078
3.6187358 -0.60076475 1.0480121
3.2750516 -0.50586814 1.0003312
3.3161476 -0.50798965 1.0568392
3.4351268 -0.5283587 1.0655694
3.554215 -0.56130445 1.0201194
3.6043487 -0.55354333 1.0569046
3.2711756 -0.41807267 1.0033638
3.308239 -0.44877279 1.0810211
3.454915 -0.44734418 1.0318797
3.5220466 -0.43577808 1.0498641
3.2519789 -0.349648 1.0093396
3.3048053 -0.34532285 1.0446913
3.4823866 -0.33038592 1.0272341
3.5292645 -0.3331483 1.0542238
3.1976786 -0.21242869 1.0236499
3.2501252 -0.26713806 1.0112936
3.3109715 -0.26895505 1.0485401
3.4961936 -0.23526621 1.053123
3.5093522 -0.27280822 1.038308
3.606652 -0.26518258 1.0050936
3.1905942 -0.18214917 1.0325489
3.2194121 -0.19112386 1.0182166
3.4699621 -0.17468739 1.0151556
3.2591531 -0.60668719 1.1849809
3.6011856 -0.62190533 1.1714646
3.2962735 -0.50465041 1.1187224
3.3058553 -0.50682163 1.1168953
3.4823747 -0.55128211 1.1800356
3.5854058 -0.57360339 1.1402547
3.6080952 -0.54444575 1.1134346
3.1953917 -0.40853286 1.1163208
3.2727418 -0.41893309 1.1253641
3.3056045 -0.46601921 1.1262109
3.43221 -0.43337914 1.157733
3.5100224 -0.45966482 1.1525352
3.6005774 -0.4886651 1.115371
3.2562816 -0.35224053 1.1298029
3.3018858 -0.35005656 1.186307
3.4748635 -0.34563079 1.1720151
3.5328465 -0.36160865 1.1282818
3.6232626 -0.30736583 1.139468
3.1963902 -0.20614997 1.1439567
3.2292917 -0.26478362 1.1364751
3.3134027 -0.20727539 1.1206956
3.4933455 -0.23620933 1.1251104
3.505919 -0.26685226 1.1456258
3.6027365 -0.25998825 1.1192698
3.1939282 -0.18852374 1.1550608
3.2096438 -0.18253356 1.1303267
3.3159442 -0.19364524 1.1553929
3.4833245 -0.19802809 1.1565189
3.5331545 -0.61293179 1.2231607
3.6201668 -0.63177824 1.229295
3.2874205 -0.50441521 1.2422154
3.3030543 -0.50523984 1.238873
3.4401779 -0.53530288 1.2885973
3.5529997 -0.57116473 1.2652252
3.6112769 -0.51968443 1.2548964
3.1949456 -0.45217538 1.2049165
3.2704644 -0.41947103 1.2464345
3.302763 -0.46299839 1.2265232
3.4118681 -0.43235582 1.2901485
3.5351055 -0.46328497 1.2642286
3.6221447 -0.48358983 1.2655966
3.2556255 -0.35360706 1.2497554
3.3100879 -0.3378478 1.2958367
3.4754012 -0.34813976 1.2048522
3.5238109 -0.32870382 1.2474513
3.6491971 -0.32644746 1.2141781
3.1831949 -0.20518994 1.2629738
3.2312453 -0.26663116 1.2548223
3.3028641 -0.21484119 1.2499042
3.4923174 -0.22926305 1.2248393
3.5149696 -0.28401715 1.2250181
3.6119215 -0.27914858 1.2178757
3.194036 -0.19472992 1.2630126
3.2081532 -0.19701886 1.257617
3.4849668 -0.19939446 1.2460623
3.2576635 -0.60075951 1.3521657
3.5519981 -0.62115705 1.3756053
3.6024225 -0.60274124 1.3942649
3.2847829 -0.50382996 1.3629155
3.3037138 -0.50519323 1.3601906
3.4506531 -0.53531325 1.3429983
3.5161147 -0.55583763 1.313972
3.6096737 -0.54880583 1.3758795
3.1778932 -0.44489026 1.3684595
3.255193 -0.41591832 1.3677173
3.3053555 -0.49587601 1.3604858
3.4076695 -0.49896902 1.3620627
3.5160587 -0.49758685 1.3240879
3.6163199 -0.49237704 1.3334401
3.1933579 -0.36692619 1.3957899
3.2373333 -0.35217884 1.370559
3.3045471 -0.35843334 1.321317
3.476922 -0.33107337 1.3586202
3.5315814 -0.34098807 1.3350947
3.1862924 -0.20513591 1.3782558
3.2157352 -0.26134241 1.3741412
3.322279 -0.20809861 1.3598371
3.49826 -0.24854472 1.3608024
3.5137455 -0.28015971 1.3511367
3.614213 -0.28383878 1.3440487
3.194222 -0.19741574 1.3764453
3.2084761 -0.19157079 1.3740206
3.6157551 -0.61250818 1.4260406
3.2904363 -0.50091094 1.4816394
3.3069854 -0.50696707 1.4563267
3.4812655 -0.55069476 1.427789
3.5372603 -0.57303923 1.4127226
3.601141 -0.51899981 1.4234767
3.2642918 -0.43997288 1.4843295
3.3042123 -0.45972812 1.4757833
3.421746 -0.43727714 1.4132285
3.5275588 -0.46379778 1.438638
3.6096454 -0.47811136 1.4531555
3.1997831 -0.30288589 1.4284544
3.2365792 -0.35086575 1.4874885
3.3083737 -0.33940446 1.4313996
3.4942412 -0.37009761 1.4639466
3.5313578 -0.33756605 1.4353161
3.6092048 -0.31711867 1.4594283
3.1900067 -0.23460959 1.4923108
3.2249162 -0.26640722 1.4890897
3.3566511 -0.26696452 1.4028993
3.4893312 -0.22979692 1.4961731
3.5121002 -0.27224731 1.4856379
3.605072 -0.27112311 1.4380939
3.1962523 -0.19973189 1.4917054
3.2256856 -0.19960794 1.4895141
3.2040267 -0.07578373 1.4471827
3.5334706 -0.60841215 1.5312834
3.2924643 -0.5013988 1.5909767
3.3070374 -0.50523472 1.578758
3.4234309 -0.50925469 1.5836987
3.5247006 -0.57310861 1.5370352
3.6011643 -0.52125698 1.5128777
3.2886322 -0.49426451 1.5998073
3.3048534 -0.45371288 1.5927651
3.4517379 -0.43059158 1.5433366
3.5183074 -0.46408653 1.5479264
3.6137996 -0.49295574 1.5756643
3.1763949 -0.37422106 1.5622456
3.2352049 -0.34899366 1.5025151
3.3138058 -0.3580642 1.5438588
3.47018 -0.36139247 1.5545642
3.5374055 -0.36796087 1.532835
3.6426847 -0.30917001 1.5985694
3.1871138 -0.21868464 1.508251
3.2232735 -0.26153675 1.5044789
3.3678637 -0.25032505 1.5059631
3.4974573 -0.23209429 1.5612047
3.5115643 -0.27195138 1.582607
3.195086 -0.14417759 1.5706103
3.2246644 -0.17474094 1.5950704
3.488308 -0.19773102 1.534801
3.5351214 -0.61288714 1.6889808
3.6178854 -0.60139012 1.6295712
3.2925301 -0.50075674 1.6016543
3.3222876 -0.50362158 1.6712596
3.4210057 -0.5108707 1.6027205
3.536119 -0.57151943 1.6639173
3.6124351 -0.5509603 1.6686237
3.2483203 -0.42137983 1.6027429
3.3099327 -0.45268655 1.6262684
3.4595737 -0.4287858 1.6643724
3.5061097 -0.44713888 1.6672153
3.6077273 -0.47292864 1.6211994
3.1975276 -0.30592179 1.606149
3.2269523 -0.35379097 1.6040637
3.3054924 -0.33545345 1.6831305
3.4781408 -0.33195442 1.6696362
3.5343704 -0.35204259 1.6245785
3.1927645 -0.2375282 1.6063643
3.2106388 -0.28963551 1.6052876
3.3550837 -0.24356847 1.6885729
3.4960351 -0.22946532 1.6629448
3.5137005 -0.28524405 1.6513102
3.1900673 -0.19838959 1.6084232
3.2067161 -0.19912359 1.6057532
3.3089862 -0.19668601 1.6501284
3.2045531 -0.092808008 1.6274168
3.6165872 -0.60684729 1.7266777
3.288424 -0.50431705 1.7181001
3.3244686 -0.51009172 1.7739332
3.4225299 -0.50411987 1.7052441
3.5686007 -0.57175434 1.7892022
3.6057425 -0.52499139 1.706753
3.2787957 -0.44282949 1.7183878
3.3045223 -0.46626407 1.7243397
3.4722862 -0.44622633 1.7883518
3.5383906 -0.44378132 1.7777135
3.6126881 -0.46166098 1.7121294
3.1854868 -0.3747704 1.7676001
3.2543006 -0.34956896 1.7188239
3.3104687 -0.33574167 1.7883766
3.5348632 -0.35841542 1.7338569
3.6437798 -0.30311871 1.7089713
3.1917758 -0.20222045 1.7207887
3.2264056 -0.26072344 1.7194595
3.3440948 -0.23587504 1.7917368
3.4956224 -0.23648907 1.783021
3.5164185 -0.28738904 1.7838953
3.6190553 -0.28246921 1.7212598
3.1945279 -0.19937956 1.7203271
3.2054405 -0.19350567 1.7211499
3.3310452 -0.19802809 1.7229128
3.5349398 -0.60992503 1.8460269
3.2882915 -0.50680387 1.8074682
3.3327427 -0.50327492 1.8076694
3.4268351 -0.50401187 1.8140502
3.5233405 -0.55438685 1.8061371
3.6045809 -0.52879298 1.8567226
3.1997736 -0.41002798 1.8014183
3.277025 -0.43640798 1.8356423
3.3034077 -0.47238225 1.8415835
3.4196374 -0.49600908 1.8095846
3.5132322 -0.46487951 1.8413978
3.6113751 -0.48761985 1.8245149
3.2535093 -0.34942865 1.8349063
3.30213 -0.35191792 1.8257804
3.4739389 -0.31598082 1.8419008
3.5361907 -0.35604608 1.8490317
3.1865993 -0.20188794 1.8336477
3.2365797 -0.28477103 1.8345339
3.3580487 -0.24208815 1.8434992
3.4952271 -0.23443165 1.867938
3.517154 -0.28981537 1.8426497
3.608974 -0.2873466 1.843081
3.189208 -0.19908985 1.8335662
3.2037816 -0.19762486 1.8343234
3.3159492 -0.19835947 1.8505533
3.1835639 -0.076443195 1.8064888
3.5543063 -0.61424994 1.9973249
3.291431 -0.50711781 1.9135785
3.3407466 -0.50238079 1.9167788
3.4682994 -0.55688739 1.9152818
3.5167265 -0.55436027 1.9269249
3.6022489 -0.52656722 1.9212663
3.2763214 -0.43746406 1.9529533
3.3063135 -0.46656388 1.9633384
3.4423561 -0.44079006 1.9321432
3.5150442 -0.44432592 1.9273717
3.6141281 -0.48631588 1.938293
3.1928997 -0.38608646 1.9118323
3.2506244 -0.34997422 1.950947
3.3052547 -0.34405589 1.9198453
3.4885621 -0.32165539 1.9926026
3.5375094 -0.36106467 1.9889474
3.6233349 -0.34358287 1.9802377
3.1986084 -0.20261472 1.9478559
3.2171302 -0.26718101 1.9488316
3.33021 -0.27035147 1.9262745
3.494822 -0.2311267 1.9346955
3.5151529 -0.28321475 1.977875
3.1826565 -0.19457994 1.9471235
3.2037885 -0.19900309 1.9482119
3.3113537 -0.19665697 1.9203913
3.1731143 -0.096777678 1.9806478
5.8266602 -0.34296656 0.49093372
5.7653303 -0.26568064 0.42578441
5.8394036 -0.21768038 0.49673742
5.9879565 -0.28778797 0.44888383
6.0123405 -0.28721613 0.44064933
5.7646327 -0.14293456 0.42623597
5.8355165 -0.17088464 0.49525088
5.7700014 -0.075836278 0.42511624
5.8600578 -0.045129519 0.49326068
5.9349551 -0.015096135 0.46578628
6.0248876 -0.0048519084 0.4103896
6.1165714 -0.00043487549 0.46605581
5.7874222 0.00017952919 0.46626872
5.8179283 0.0081015453 0.41408044
5.9776073 0.001524806 0.48309463
6.0911446 0.027091753 0.49263269
6.1215429 0.013717702 0.49020582
5.9350376 0.19080742 0.47343189
6.0603423 0.19215685 0.47860986
6.0353432 0.20033112 0.47345942
6.1013589 0.2139349 0.44487935
5.781847 -0.36487401 0.5811196
5.8115654 -0.34424505 0.56623036
5.9314933 -0.38833308 0.52371603
5.7824469 -0.20783775 0.57909817
5.8190289 -0.26222381 0.55980283
5.9531078 -0.28726831 0.54622442
6.0375285 -0.27875865 0.53941411
5.7809801 -0.16510057 0.59486443
5.8036065 -0.14462617 0.59218556
5.9152069 -0.14414859 0.55692893
5.775702 -0.041175775 0.5973801
5.8445415 -0.038911957 0.59241635
5.9447255 -0.0088667553 0.58472437
6.0759883 -0.00012254715 0.52814692
6.1052599 -0.0066946745 0.51667529
5.773993 0.018016245 0.56526762
5.8806586 0.011408339 0.5724265
5.9763908 0.035957754 0.59694678
6.0202928 0.04211178 0.58838636
6.1323385 0.056009561 0.56671315
5.7869005 0.13730654 0.51145416
5.9824219 0.11558831 0.55030185
6.0153599 0.11215992 0.55837232
5.7746181 -0.30863377 0.63603789
5.8172498 -0.33060879 0.64186507
5.9693446 -0.3000685 0.62802869
5.7797956 -0.24178936 0.63581795
5.8226919 -0.20643875 0.69042999
5.9799519 -0.29026639 0.68837863
6.0279512 -0.28745884 0.63753706
5.7785087 -0.14478129 0.63609642
5.8234329 -0.17644815 0.69137472
5.7785363 -0.083928049 0.63608915
5.8387899 -0.021716166 0.69007117
5.9448843 -0.0036675974 0.67994362
6.0223851 -0.0024710954 0.64675683
6.1412692 -0.0023318529 0.64988595
6.2065477 -0.00087881088 0.6998679
5.7792702 0.004021287 0.63697368
5.9631834 0.034592722 0.60172135
6.0148168 0.04450307 0.61141843
6.1130428 0.034208842 0.67650479
6.2043557 0.0040578842 0.68049127
5.7748508 -0.35662764 0.77045375
5.833281 -0.31617844 0.74821979
5.916039 -0.30246615 0.79310709
5.7803898 -0.20981255 0.76105791
5.8269062 -0.21532942 0.7761119
5.9708023 -0.29611549 0.75601465
6.0151339 -0.28626642 0.71768779
5.7827392 -0.17784764 0.75406748
5.8283014 -0.15172982 0.78804094
5.7873755 -0.066895947 0.78328019
5.8370862 -0.036792226 0.7953617
5.9129457 -0.0029548793 0.78920227
6.0346351 -0.0002374649 0.72926849
6.1993322 -0.00032377243 0.71978897
5.788424 0.013963252 0.74151284
5.8544917 0.050904617 0.77934581
5.9344749 0.052190926 0.79054183
6.0826306 0.01812651 0.77093416
6.1311741 0.022501186 0.78321129
5.8951764 0.13287024 0.76089555
5.9476929 0.12830529 0.7654441
5.7779765 -0.31049287 0.8457523
5.830914 -0.31476027 0.83418447
5.9245348 -0.30969262 0.84418041
5.7777114 -0.22510177 0.84596312
5.8854399 -0.29535285 0.87607294
5.9576402 -0.29587498 0.8133449
6.0224466 -0.29152447 0.81335491
5.7838054 -0.14914516 0.84542572
5.8375611 -0.15308112 0.8926037
6.0679817 -0.14853799 0.88907009
5.7823458 -0.057781924 0.84589583
5.8586807 -0.056578908 0.88676232
5.9176259 -0.011640333 0.87076092
6.0736485 -0.047570564 0.88458091
6.1373029 -0.0014903992 0.84759831
5.789134 0.003510871 0.84727877
5.8705587 0.017643046 0.83141524
5.9600382 0.032274809 0.81701452
6.0054874 0.038056575 0.80957258
6.1115184 0.03426161 0.87972307
5.6884365 -0.30548155 0.95157427
5.773263 -0.34199739 0.95379561
5.848918 -0.31375489 0.9905284
5.9444399 -0.30490249 0.91105837
6.0209317 -0.3013047 0.95717496
5.7752123 -0.21176657 0.95485795
5.869091 -0.29788095 0.94328403
5.9721756 -0.29631317 0.96563584
6.0141439 -0.28918409 0.95985049
6.1035004 -0.26493967 0.98161453
5.7744684 -0.15681159 0.91290343
5.812233 -0.15398896 0.95559794
6.0814342 -0.11774659 0.95777756
6.1027284 -0.15893523 0.93047833
5.7907562 -0.034176707 0.98222512
5.8355274 -0.0114066 0.97648937
5.9766092 -0.013243769 0.99445003
6.0865135 -0.068173259 0.93236256
6.1093926 -0.040894814 0.92327338
5.7905016 0.014362829 0.9592393
5.8299565 0.026054233 0.96684176
5.956748 0.0036562579 0.9793424
6.0733509 0.0257686 0.97124326
6.1037302 0.028716035 0.98786694
5.7928071 0.14574584 0.95098829
5.86133 0.1380651 0.96767801
5.9264011 0.12690294 0.98218107
6.0570903 -0.4059763 1.0413456
5.7794714 -0.31219274 1.0535996
5.8358245 -0.31425181 1.0077004
5.9384737 -0.30937743 1.0563847
6.0134687 -0.30157021 1.0449011
5.7865839 -0.22066841 1.0532873
5.837626 -0.25538862 1.0327711
5.9870644 -0.29593718 1.0592822
6.0190725 -0.28971827 1.0305759
6.1017647 -0.25456744 1.0850426
5.7906203 -0.14844605 1.0526161
5.8008461 -0.11065194 1.0514073
6.0687385 -0.14123742 1.0058334
6.1033978 -0.13236718 1.0457683
5.7927828 -0.092822105 1.0524564
5.8035622 -0.08080937 1.050725
5.952167 -0.0119671 1.0853597
6.0814714 -0.051031057 1.0085227
6.1059194 -0.044012271 1.032316
5.7974153 0.013255779 1.0351894
5.8828473 0.015929874 1.0409789
5.9685993 0.029119553 1.0303044
6.0066919 0.032130226 1.0254936
6.1043024 0.0139038 1.0291765
5.9536057 0.11469014 1.0010371
5.782568 -0.3096894 1.1656827
5.8120852 -0.32107028 1.1391425
5.9688945 -0.30229875 1.1313441
6.0408845 -0.30271801 1.1213894
5.7804461 -0.22607249 1.1068859
5.8163323 -0.25372866 1.1531488
5.9736085 -0.29621971 1.1457827
6.0270166 -0.2946614 1.1472877
6.1049538 -0.24841271 1.178574
5.7891273 -0.18588495 1.1526177
5.801012 -0.16294046 1.1371218
6.0769258 -0.11659818 1.1288266
6.1051292 -0.13891871 1.1595645
5.7781944 -0.031486027 1.1871265
5.8345995 -0.032000348 1.1677866
5.925518 -0.0018129848 1.1681453
6.0796156 -0.057598956 1.1286137
6.107265 -0.061696079 1.1469581
5.7930155 0.012780826 1.1645172
5.8187165 0.032997694 1.1457107
5.9744034 0.036809433 1.184919
6.085969 0.029676143 1.1065652
6.1051092 0.0097387554 1.1256243
5.7926197 0.12597728 1.1836486
5.8064399 0.11870769 1.1927276
5.9148369 0.17324279 1.1538752
5.7663088 -0.31238258 1.2610664
5.8173466 -0.32132149 1.2871461
5.9350967 -0.30912483 1.2387133
6.0327482 -0.31395417 1.234762
5.7720995 -0.29805031 1.2612765
5.811851 -0.23216318 1.2827728
5.9574986 -0.29904094 1.2826447
6.0334358 -0.29152057 1.2153141
6.1013207 -0.26154566 1.2403589
5.7853494 -0.14949442 1.2595571
5.8010058 -0.12014896 1.2596219
6.0833302 -0.13335921 1.2535238
6.1071868 -0.12936012 1.271816
5.7843261 -0.065335274 1.2598815
5.8023024 -0.044663027 1.2458806
5.9146767 -0.0030213217 1.2466979
6.0803165 -0.061987482 1.2350004
6.1130962 -0.080651246 1.2596807
5.7928057 0.027440317 1.254738
5.8706875 0.013905373 1.251776
5.9201241 0.02084502 1.2475274
6.0770073 0.030736066 1.2113023
6.1052217 0.014542447 1.2426379
5.7888775 0.10355206 1.2112198
5.8686552 0.12148046 1.2776532
5.9137373 0.11198506 1.2162701
5.7628756 -0.31551796 1.342505
5.8143544 -0.31514031 1.3098397
5.9569092 -0.30274412 1.3172007
6.0140486 -0.3062205 1.3503108
5.685976 -0.27010643 1.3513896
5.7659531 -0.22020559 1.3532944
5.8326645 -0.24779589 1.3077726
5.9711547 -0.29582459 1.3124423
6.0205936 -0.29338217 1.3190701
6.1017752 -0.27175674 1.3172495
5.7749839 -0.16187434 1.3243985
5.802249 -0.18220408 1.3020942
6.0814195 -0.1290504 1.3526831
6.102726 -0.13614967 1.3717377
5.770092 -0.055235669 1.3768027
5.8160443 -0.029348688 1.3911815
5.9133072 -0.0014436605 1.3469908
6.0852098 -0.050227292 1.3490198
6.1147375 -0.031608984 1.3638644
5.798296 0.0073074629 1.3114924
5.8328466 0.043084241 1.3555775
5.9664721 0.037195541 1.3335955
6.0796561 0.031745434 1.3293078
6.1052198 0.018666409 1.3438799
5.7774968 0.1366438 1.3889303
5.7787924 -0.31454366 1.4649181
5.8114262 -0.3228144 1.4415436
5.916213 -0.31079969 1.4154921
6.0238686 -0.30145678 1.4685719
5.6880326 -0.26923567 1.4637127
5.7626286 -0.25259134 1.466455
5.8700643 -0.29787323 1.4405196
5.9807634 -0.29621714 1.4428422
6.0081148 -0.29522145 1.4687076
6.1012783 -0.28364053 1.4244914
5.7559934 -0.15551122 1.4661167
5.8088474 -0.1529837 1.4377704
6.0839682 -0.12311737 1.4646344
6.1117935 -0.12163289 1.4794905
5.7768698 -0.013424043 1.4649451
5.8090568 -0.0034408115 1.4620695
5.9168148 -0.0066853473 1.458967
6.0840573 -0.08413852 1.4543519
6.1150503 -0.053020075 1.4693661
5.7922659 0.00062513491 1.4645836
5.8454156 0.0065357676 1.461262
5.916894 0.058480423 1.440299
6.0882545 0.017041046 1.4508839
6.1057296 0.01505769 1.4632418
5.7767973 0.1074874 1.4137533
5.8013544 0.10396063 1.4240935
5.7645531 -0.31341991 1.5526333
5.864099 -0.31902191 1.5719321
5.9391499 -0.3077718 1.5649018
6.0245395 -0.3010937 1.5732234
5.765131 -0.21929669 1.5915866
5.8821211 -0.29575643 1.5471036
5.9712348 -0.29599223 1.5318444
6.0338759 -0.29242572 1.5137951
6.1038961 -0.26958907 1.5446491
5.7764626 -0.18823755 1.5937018
5.8074045 -0.1794731 1.5606227
6.084528 -0.15124856 1.5736454
6.1057663 -0.13868104 1.58621
5.786531 -0.058106925 1.5861857
5.8225908 -0.01435735 1.5424583
5.9205623 -0.0045743426 1.5564334
6.0926766 -0.036947921 1.565907
6.115427 -0.078611784 1.5799456
5.790823 0.0030763077 1.5611639
5.8128314 0.023573674 1.5486736
5.9661007 0.03486073 1.5633254
6.0876265 0.035767924 1.5606015
6.1050944 0.016304545 1.5704849
5.7838879 0.14580642 1.586319
5.8144031 0.15229402 1.586647
5.9642539 -0.43762028 1.620151
5.7675896 -0.31392905 1.6693053
5.8542228 -0.31839082 1.6843667
5.951231 -0.30666378 1.64747
6.011097 -0.30397186 1.6563375
5.7580194 -0.27830198 1.6697252
5.8838882 -0.29724529 1.6889427
5.9860735 -0.29843482 1.6278703
6.0170746 -0.29555327 1.6614273
6.10427 -0.22105458 1.6765068
5.7738638 -0.15845251 1.6690037
5.8151207 -0.12570392 1.6358032
6.0865245 -0.14837106 1.6769919
6.1061726 -0.1211317 1.6880422
5.7862396 -0.0085483082 1.6684597
5.8016033 -0.0067151692 1.6685424
5.9220896 -0.0019262325 1.6385398
6.0919361 -0.057727434 1.6771891
6.117063 -0.07306245 1.6834199
5.7867537 0.0038166256 1.6687942
5.8062649 0.0046035354 1.6682897
5.9445448 0.033335987 1.6383464
6.0886621 0.0085275136 1.6781666
6.1040945 0.0099016018 1.6856723
5.7870221 0.10604163 1.6283953
5.7828531 -0.32242361 1.7751715
5.8419371 -0.32085353 1.749553
5.9412436 -0.30823421 1.779319
6.036211 -0.30102596 1.7089045
5.6760755 -0.29230496 1.7719076
5.7806568 -0.21344107 1.7785552
5.823988 -0.25251362 1.7840652
5.9488153 -0.29822493 1.7854955
6.0509081 -0.29208139 1.7490804
6.1029978 -0.26280603 1.7799563
5.7860022 -0.17526406 1.7873847
5.8068943 -0.15955865 1.7832494
6.0873671 -0.15092829 1.7834282
6.1024423 -0.15386437 1.7026749
5.7904835 -0.056885079 1.7850859
5.8025622 -0.016041912 1.748714
5.9107604 -0.0013879101 1.7487788
6.0864763 -0.086207934 1.7925436
6.1163092 -0.04174535 1.7841299
6.2128935 -0.065744027 1.7100525
5.7937813 0.0059386194 1.7789195
5.8062272 0.0080039296 1.7783759
5.9333849 0.02835878 1.7827384
6.0961208 0.019992584 1.7813814
6.103436 0.018455267 1.7778027
5.791522 0.14080599 1.7986698
5.8114295 0.16022795 1.7943299
5.7813091 -0.30486935 1.8730464
5.8424048 -0.31684831 1.8382192
5.9447842 -0.3077988 1.816011
6.006588 -0.30254406 1.8865814
5.6965303 -0.27786458 1.8047819
5.7734256 -0.24829918 1.872963
5.8148694 -0.22276974 1.847049
5.9517951 -0.29696226 1.8657179
6.0134082 -0.29314774 1.8172557
6.1032004 -0.27587754 1.8713748
5.7802162 -0.14887188 1.8726056
5.8136911 -0.14962593 1.8168907
6.0904503 -0.15988022 1.885253
6.1023469 -0.1407427 1.8114603
5.783349 -0.014580279 1.8725612
5.8059406 -0.00095792592 1.873111
5.920475 -0.0013917213 1.8548927
6.0951829 -0.094270989 1.8531573
6.1190228 -0.058644943 1.8880546
5.7962313 0.0022648328 1.8726084
5.8130612 0.0026271055 1.8729331
5.9100237 0.012780424 1.8746095
6.0971942 0.032592416 1.8758588
6.1041646 0.0093914848 1.8033261
5.7946668 0.1242255 1.8176064
5.8249969 0.11850874 1.8305101
5.7778988 -0.32067651 1.9896483
5.8880949 -0.31392652 1.9145103
5.9196587 -0.31292164 1.9784687
6.0130591 -0.30189493 1.9857941
5.7711515 -0.20755553 1.9876828
5.8853912 -0.29693365 1.9788127
5.9762616 -0.29746607 1.9714611
6.0101428 -0.29635319 1.9840562
6.1018553 -0.27488178 1.9780872
5.7834272 -0.16883552 1.9905317
5.8032866 -0.14477429 1.9798162
6.0936317 -0.15102516 1.9409926
6.1147585 -0.11574163 1.9703779
5.780777 -0.071147919 1.9891684
5.8098187 -0.030779772 1.9901049
5.9209452 -0.0025724592 1.9352498
6.096632 -0.083448015 1.9301071
6.1190395 -0.074899405 1.9903462
6.2000089 -0.047150135 1.9205847
5.7949209 0.004931123 1.9420254
5.8838692 0.023345256 1.9509447
5.9725871 0.028600203 1.938493
6.095809 0.01705501 1.9074144
6.1021309 0.022662805 1.9499133
2.348011 0.77864277 0.42386752
2.4051452 0.774423 0.40517896
2.2873521 0.80802488 0.45341605
2.3138044 0.80844277 0.49352759
2.2592087 0.65774083 0.52852005
2.3303118 0.69967771 0.52737647
2.336076 0.79282832 0.52617818
2.333117 0.80955541 0.5690766
2.2980723 0.79958844 0.64714819
2.3184738 0.79418355 0.66176778
2.2930565 0.80801123 0.64752835
2.3349113 0.81243759 0.66542441
2.2600546 0.63845968 0.75677866
2.3214984 0.69975299 0.72607082
2.2932987 0.71699095 0.75597781
2.3210201 0.7930522 0.76174015
2.29737 0.81115615 0.76962954
2.3088593 0.80598432 0.78033262
2.4056084 0.80568898 0.70621878
2.2950788 0.33852869 0.88986123
2.3137817 0.32708538 0.88180739
2.2778761 0.40589261 0.8933928
2.3229694 0.46707726 0.88468415
2.2923491 0.59252596 0.87890458
2.3278246 0.55969292 0.88869673
2.2870355 0.64251041 0.88157272
2.3295982 0.66459829 0.8793937
2.3208394 0.77203274 0.87794173
2.2846508 0.82011962 0.82323867
2.3307428 0.8780064 0.8884576
2.2886155 0.94106871 0.88469619
2.342195 0.97790438 0.87898332
2.3589895 1.0737007 0.87230903
2.2728493 1.1359382 0.86507666
2.3858972 1.1829554 0.85622305
2.4158926 1.1932234 0.85129696
2.3469596 1.2817926 0.85401571
2.2757568 1.3508692 0.85943663
2.3299055 1.3774309 0.88509399
2.3226466 0.29695392 0.9618994
2.2974267 0.32121834 0.97044832
2.3171978 0.30641919 0.98467845
2.2940252 0.41999173 0.97403622
2.3431749 0.42084432 0.90409827
2.3120818 0.66475099 0.91214365
2.3322659 0.7483927 0.90264732
2.3441052 0.88112903 0.90345305
2.3516691 1.267363 0.95159286
2.3421688 1.3417253 0.99240249
2.4061971 1.3305646 0.94669211
2.3394523 0.29197514 1.0435574
2.2938535 0.3654004 1.0554304
2.3372717 0.33306485 1.0779078
2.3745997 1.2994802 1.0083767
2.3589487 1.3336341 1.0340729
2.4219813 1.3349811 1.0901527
2.2978425 0.29621091 1.142431
2.3152509 0.29690322 1.1368037
2.2927732 0.33317935 1.1787417
2.317379 0.30178669 1.1362181
2.4237862 0.30747664 1.1716125
2.3694067 1.2997904 1.1586626
2.3627121 1.3344641 1.1360329
2.401772 1.3593192 1.1507766
2.3211603 0.29932696 1.2245317
2.4048681 0.28098917 1.2335377
2.3243818 0.3063488 1.223352
2.4058645 0.32769156 1.2784209
2.3591857 1.3365281 1.2377291
2.4126215 1.3436838 1.2121429
2.3302846 0.2968635 1.3145821
2.405895 0.2721175 1.3494935
2.2975187 0.36273289 1.3382733
2.3423676 0.30977035 1.3509595
2.4360514 0.33940524 1.357748
2.3130574 1.2606978 1.3885655
2.3711777 1.337625 1.3357892
2.4056711 1.3398515 1.321456
2.5067258 1.3466332 1.3444779
2.3611732 0.29818642 1.4189715
2.4037418 0.28938252 1.4352033
2.2934868 0.34566259 1.4894285
2.3480279 0.3181935 1.4800625
2.4067407 0.33733907 1.4457786
2.5240073 1.286658 1.4837186
2.3686218 1.3351005 1.4353282
2.4220693 1.3863616 1.4268563
2.5396612 1.3503704 1.4527326
2.367044 1.4035003 1.4426148
2.3498693 0.29062778 1.5089529
2.4126065 0.28967309 1.5475829
2.2996862 0.33885098 1.5031872
2.3422432 0.31951523 1.5662737
2.4109223 0.33610898 1.5691967
2.4421997 1.2859251 1.5584512
2.3880315 1.3451927 1.5314708
2.404264 1.3474102 1.5358512
2.5328851 1.3406157 1.5471456
2.4861331 1.4327655 1.520376
2.5784264 1.4439654 1.5398457
2.3747339 0.29849488 1.6502237
2.4440649 0.29880273 1.6677589
2.3340907 0.32591915 1.6516411
2.4067063 0.3374047 1.6635442
2.3273821 1.2545767 1.6177578
2.4431472 1.2812831 1.6366463
2.5291419 1.2737453 1.602982
2.3799958 1.3414743 1.6302247
2.4157982 1.3492938 1.660753
2.5077491 1.3192058 1.68543
2.3735409 1.4098003 1.6638753
2.5538797 1.42379 1.6592433
2.3948479 0.29759192 1.7665772
2.4090815 0.29395175 1.7383521
2.346688 0.31994808 1.7358248
2.4145215 0.3536253 1.7770221
2.4408565 0.40622449 1.789834
2.3627782 1.2840307 1.7888763
2.4662492 1.2834105 1.7765665
2.5295825 1.2906998 1.7131643
2.3907752 1.3564057 1.7274749
2.4034495 1.3631773 1.7276399
2.5090036 1.3349338 1.751555
2.3531432 1.4038219 1.7773511
2.3433387 0.28770411 1.8166597
2.4446082 0.28608441 1.8393884
2.3507285 0.33142161 1.8205922
2.4057274 0.33712685 1.8516028
2.4068122 0.4846096 1.8932118
2.3522375 0.55924332 1.8971131
2.4053741 0.58725715 1.897033
2.3522053 0.6579386 1.8981037
2.4046974 0.66404641 1.8914649
2.3455756 0.75537181 1.8920529
2.404808 0.76726723 1.8955545
2.3488586 0.83729059 1.8926105
2.4049506 0.82465756 1.8944044
2.352006 0.94157934 1.8907712
2.4045272 0.95537508 1.8896279
2.3526325 1.0503722 1.8908463
2.4018102 1.0516137 1.890198
2.3478222 1.1473341 1.8872795
2.4018719 1.1499674 1.8883808
2.3471739 1.2421162 1.8883722
2.4071608 1.2627792 1.8900549
2.5181398 1.2907497 1.8163042
2.3886783 1.3513681 1.8254278
2.4045699 1.3498163 1.8381929
2.5045662 1.3156998 1.8133595
2.3667231 1.4071988 1.8820989
2.4332469 0.29325449 1.9082081
2.3413134 0.36947536 1.9052413
2.4091153 0.355248 1.9082847
2.3490388 0.42999271 1.9060121
2.405051 0.45601821 1.904
2.3448205 0.52112222 1.9060512
2.4114151 0.55142289 1.9032152
2.3420892 0.63132602 1.9049983
2.4042706 0.64688742 1.903434
2.3661709 0.7434352 1.9012711
2.435394 0.73385262 1.9044671
2.3741407 0.8246519 1.9016821
2.3770652 0.95431781 1.9023371
2.4426398 1.0882146 1.904007
2.3850322 1.1476316 1.9013934
2.4357865 1.1219708 1.9030311
2.3772247 1.2609358 1.9004123
2.436697 1.2521241 1.9024117
4.5497084 1.1815047 0.41388685
4.6128659 1.1938088 0.43731624
4.395525 1.2928936 0.47665721
4.4101534 1.2712469 0.47809166
4.5645208 1.214039 0.49515337
4.6458387 1.2270379 0.47776371
4.7203221 1.2413108 0.42614061
4.3747067 1.3407174 0.48428339
4.4064636 1.3071312 0.48017639
4.6787777 1.3672178 0.49967974
4.2908673 1.4762583 0.46083671
4.3174348 1.4527649 0.48605007
4.6207266 1.495834 0.43462998
4.2877674 1.5116255 0.40400678
4.300375 1.5010829 0.42062515
4.5991287 1.5156631 0.40957206
4.6241283 1.5068982 0.47086555
4.4657412 1.1675369 0.51835483
4.5236979 1.1485105 0.55228442
4.6145258 1.1939553 0.51088434
4.3949471 1.2868664 0.52761525
4.4199953 1.27464 0.5224846
4.5753074 1.2143353 0.5981167
4.6547289 1.2168261 0.53516942
4.7130384 1.2395308 0.52457601
4.3808966 1.3379318 0.52766818
4.4068241 1.3130378 0.52292675
4.6817055 1.367521 0.51576978
4.7187142 1.3138177 0.5737235
4.2913041 1.438023 0.53962713
4.3400059 1.4352958 0.53009135
4.4258852 1.4217243 0.55726224
4.5343151 1.4648333 0.58778602
4.6514177 1.4713383 0.51992947
4.2979507 1.5322067 0.55813283
4.3098664 1.5220377 0.56917244
4.5929871 1.5349026 0.58651239
4.6277475 1.5061431 0.51598006
4.3733959 1.1648376 0.67073804
4.4553661 1.1645982 0.69445616
4.554441 1.1902714 0.64511234
4.3973827 1.2931536 0.6993354
4.4249229 1.2748641 0.69436091
4.5735559 1.2458757 0.65217525
4.6568842 1.2132411 0.65987653
4.7423615 1.2282922 0.68004113
4.3921719 1.3325851 0.69779938
4.4077635 1.3058417 0.6961208
4.695065 1.3364413 0.63758689
4.7112074 1.3153641 0.61504906
4.2982039 1.4558012 0.68736821
4.3542786 1.45011 0.6976102
4.4654016 1.4474487 0.63766009
4.5728235 1.4756306 0.64261109
4.6483383 1.4782183 0.68494803
4.3053112 1.5021956 0.60111958
4.5938272 1.5261919 0.63184005
4.6158667 1.5348144 0.67305773
4.713779 1.5104356 0.69078702
4.3834071 1.1706227 0.75691181
4.4578843 1.1689464 0.70573026
4.553257 1.1582279 0.73276883
4.6145663 1.153059 0.70080692
4.3984594 1.2864447 0.70186883
4.4027743 1.2736452 0.70074159
4.5942955 1.2110445 0.78258234
4.6818008 1.2298748 0.74567479
4.7204857 1.2453094 0.70894033
4.3803349 1.3327962 0.70067698
4.4082546 1.3088167 0.70786661
4.5035334 1.3233566 0.75149661
4.6902552 1.3446257 0.79391581
4.7218838 1.3206843 0.75460774
4.3382168 1.4332986 0.70258623
4.4112129 1.4158082 0.73859483
4.5747614 1.478436 0.72481042
4.654109 1.4100521 0.7244845
4.2938395 1.5274957 0.75100213
4.3372583 1.5131524 0.78347594
4.5863929 1.5538712 0.73228699
4.6193662 1.5342115 0.70644146
4.7307091 1.5137057 0.72410828
4.2871108 1.1890194 0.89316344
4.3853197 1.1360512 0.87150759
4.4584846 1.1644222 0.86424869
4.5104694 1.1668571 0.85482711
4.3970828 1.2981796 0.86845869
4.4242449 1.2741393 0.86490053
4.5882297 1.2319708 0.89881217
4.6808596 1.2153741 0.8813718
4.7410269 1.2443907 0.88039058
4.3870683 1.3493811 0.8676151
4.4125113 1.3183444 0.86458319
4.5050516 1.3506072 0.88590366
4.6941495 1.3321004 0.80808753
4.7087612 1.3112931 0.80561107
4.8207994 1.3046229 0.87752432
4.3683858 1.4594855 0.86436349
4.4047222 1.4705215 0.85824364
4.5898323 1.4425399 0.86651081
4.6538429 1.4727613 0.87156004
4.2843642 1.5284407 0.89812523
4.3169174 1.5427556 0.89131433
4.578238 1.5450011 0.86224467
4.6313057 1.5232745 0.87490278
4.7385969 1.5172454 0.86775821
4.2952499 1.1765344 0.9892422
4.3771563 1.1729341 0.95694178
4.4815707 1.1345577 0.92055297
4.5320749 1.1573906 0.93504518
4.6174278 1.1907405 0.94888669
4.3943291 1.2810326 0.96275854
4.4399896 1.21736 0.9946478
4.5787249 1.2092903 0.9455238
4.6619253 1.2345257 0.91902775
4.7094526 1.2377824 0.91913033
4.3934951 1.3616138 0.99733216
4.410315 1.3321762 0.9980973
4.5936909 1.3997139 0.92436367
4.6644573 1.3543186 0.94487876
4.7197638 1.3273075 0.93530756
4.2904024 1.4867516 0.98591334
4.3528752 1.4267266 0.99248666
4.4567876 1.4381373 0.98355395
4.5982189 1.4475118 0.96862298
4.6532183 1.4806304 0.91479981
4.7335987 1.4971541 0.96374112
4.2887087 1.524343 0.93500084
4.3310432 1.5301833 0.94393045
4.4708452 1.5913788 0.94264382
4.5914745 1.5442413 0.9473514
4.6356597 1.5067892 0.91224986
4.7108397 1.5079255 0.95194817
4.3583031 1.1643929 1.0402098
4.4545231 1.1791835 1.0323972
4.5318675 1.1949083 1.0810411
4.6344976 1.1644871 1.0627656
4.3985262 1.2863841 1.0378523
4.4302883 1.2830969 1.0315757
4.5864277 1.2155057 1.0729227
4.6827269 1.2107549 1.0627737
4.7114801 1.2304778 1.0680177
4.391613 1.3485475 1.0344398
4.4189534 1.3167962 1.031765
4.5029778 1.3022078 1.0786045
4.6913018 1.3530747 1.0028911
4.7078233 1.3120791 1.0068521
4.2965508 1.4352412 1.0437348
4.3136225 1.4394327 1.0418496
4.4068151 1.4160004 1.0730941
4.5961547 1.4580595 1.0409949
4.6590238 1.477596 1.0638399
4.3455062 1.5568056 1.092186
4.5923567 1.5421393 1.0349126
4.644043 1.5121429 1.069751
4.7321672 1.5059221 1.0681207
4.3911905 1.1481341 1.1322608
4.4561558 1.1773198 1.1985401
4.5304203 1.1840532 1.1512544
4.666501 1.191515 1.1769292
4.3934221 1.2888111 1.1329401
4.4437275 1.2845653 1.1963347
4.5716338 1.2140682 1.1645675
4.6766214 1.2474374 1.1470129
4.7236214 1.2615807 1.1286087
4.2991586 1.3999043 1.1568058
4.3984776 1.3635676 1.1988611
4.4211674 1.330301 1.19736
4.6731853 1.3415923 1.1171615
4.715344 1.312011 1.1167777
4.2994637 1.4752847 1.1794461
4.3621411 1.4482825 1.1997912
4.4169588 1.4323745 1.1438191
4.5954242 1.4645535 1.1769838
4.6655874 1.4153444 1.1286933
4.7787833 1.4941278 1.1148137
4.2843132 1.5104692 1.1322522
4.3531113 1.517029 1.1506896
4.5925455 1.5431674 1.1310742
4.6224127 1.5278082 1.106699
4.7169266 1.5197487 1.1766365
4.8051028 1.5055001 1.1724448
4.4435959 1.1686931 1.2004588
4.5241866 1.1894102 1.2292016
4.6277547 1.1931152 1.2713358
4.7138853 1.1814083 1.2771972
4.398057 1.2879667 1.2524617
4.4227357 1.2905626 1.2010062
4.5659246 1.2062764 1.2613175
4.6607513 1.2085717 1.248431
4.715508 1.233429 1.2479012
4.3889475 1.3672211 1.2007172
4.4028502 1.3424263 1.2002025
4.5501032 1.3172599 1.2635438
4.6889496 1.3741107 1.2866671
4.7186127 1.3107574 1.2861576
4.2963076 1.4470742 1.2078605
4.3366623 1.4458346 1.202992
4.4401064 1.4403903 1.2702699
4.5549421 1.4642525 1.2305405
4.6356688 1.4718319 1.2647419
4.7842865 1.4994016 1.2975142
4.2829375 1.5374399 1.2653162
4.3129182 1.5384376 1.2763174
4.5957651 1.5473266 1.2426581
4.6500111 1.505471 1.2556965
4.7523966 1.5179826 1.2762141
4.3760653 1.1233675 1.3467731
4.4435415 1.1735928 1.3645778
4.5217061 1.1909674 1.3733804
4.644043 1.1888802 1.3825126
4.7175951 1.1939572 1.3389311
4.3983345 1.2951136 1.365726
4.4199977 1.2776093 1.3640113
4.567337 1.2088199 1.3454807
4.644372 1.2351037 1.3369381
4.7346826 1.2664399 1.3599989
4.3915172 1.3452704 1.3646505
4.4123931 1.31154 1.3637769
4.5655684 1.3682486 1.3684795
4.6875982 1.3634189 1.3154104
4.7157989 1.31699 1.3035581
4.2944541 1.4699082 1.3599725
4.3480434 1.4490933 1.3654599
4.4164457 1.432506 1.3161559
4.5971422 1.4565771 1.3127837
4.6684031 1.4149467 1.3197789
4.7037177 1.4128113 1.3926623
4.2922096 1.5063214 1.3135557
4.3357911 1.5207951 1.3124499
4.5956368 1.5508039 1.3555715
4.6219826 1.5290251 1.3108697
4.7251902 1.5186211 1.3786004
4.3931413 1.1828344 1.4539344
4.4741592 1.1159672 1.4339263
4.5240831 1.1913329 1.4768438
4.6678801 1.1912544 1.4635177
4.7203374 1.1920669 1.4392312
4.3942523 1.2637534 1.4353547
4.4272017 1.2377636 1.4866385
4.5767694 1.2114033 1.4750359
4.6906972 1.2251172 1.4242768
4.7198353 1.2490668 1.4415991
4.3629117 1.354798 1.4940186
4.4066973 1.3327951 1.4596431
4.5902157 1.3757741 1.4508686
4.6882954 1.3721652 1.4395463
4.7194614 1.313175 1.4573493
4.341754 1.4487336 1.4795346
4.461545 1.4671301 1.4504669
4.5975003 1.472386 1.429734
4.658823 1.4516304 1.4396644
4.7020168 1.4233911 1.4904976
4.2941413 1.5410917 1.4382489
4.3150125 1.5164144 1.4779825
4.5949926 1.5577991 1.4328253
4.6463099 1.5112613 1.4360304
4.7354765 1.5150833 1.4859421
4.3879733 1.1717365 1.5304618
4.4510984 1.1741509 1.5275316
4.5335526 1.1961857 1.5164845
4.6749067 1.1554484 1.5270157
4.7211585 1.1782647 1.5610764
4.3813591 1.278926 1.5295715
4.413672 1.2643179 1.5280049
4.5719867 1.2156429 1.5151472
4.6507263 1.237376 1.5497818
4.7120471 1.2586195 1.553304
4.3703671 1.3278253 1.5293064
4.4200687 1.3657498 1.5828266
4.6735702 1.3915859 1.5824077
4.7039585 1.3084629 1.5295074
4.3442202 1.4629893 1.5283351
4.4577675 1.4811249 1.5483553
4.5601006 1.480561 1.570179
4.6687021 1.4097109 1.5935144
4.7016048 1.4056679 1.5522401
4.8287077 1.4459672 1.5891016
4.2926235 1.5455878 1.5961921
4.3197584 1.5568879 1.59009
4.5946531 1.5531054 1.5125704
4.6223893 1.5407214 1.5903263
4.7198 1.5069866 1.5623538
4.4357777 1.1716532 1.6908364
4.5167246 1.1940179 1.6537907
4.6585894 1.1957728 1.6135798
4.7344036 1.185172 1.6653016
4.3981161 1.2954547 1.688328
4.4204493 1.283236 1.6904001
4.5750551 1.2112653 1.6367636
4.6636829 1.2359896 1.607106
4.7172027 1.2659321 1.6618807
4.3945198 1.3326758 1.6906412
4.409822 1.3264868 1.6903398
4.5778103 1.3232229 1.693994
4.6704526 1.3923647 1.615638
4.7191792 1.3151567 1.6418607
4.2951736 1.4920995 1.6825407
4.3339252 1.4579672 1.690897
4.4208441 1.4524157 1.6650121
4.550024 1.459211 1.6479635
4.6623983 1.4236833 1.6111999
4.7083015 1.4031599 1.6884055
4.8734632 1.470427 1.6147254
4.291153 1.5483425 1.6112726
4.3173852 1.5161397 1.6459897
4.5952187 1.554528 1.6488547
4.6448131 1.5183865 1.6199296
4.7342448 1.5082402 1.6638198
4.8016944 1.5047677 1.600913
4.392128 1.1667104 1.7865903
4.4372354 1.1760695 1.7043903
4.5322781 1.1937833 1.75385
4.6474481 1.1720496 1.7651479
4.7401133 1.1749175 1.7786317
4.395915 1.2833002 1.7912803
4.4229498 1.28429 1.7041142
4.5858126 1.2306086 1.7892945
4.659462 1.2380263 1.777874
4.7121353 1.2629226 1.787431
4.3900347 1.332499 1.708931
4.4059019 1.3143215 1.7027242
4.6963339 1.3499302 1.7883575
4.7175913 1.3131303 1.7867329
4.3392839 1.4579322 1.7043746
