# .PCD v0.7 - Point Cloud Data file format
VERSION 0.7
FIELDS x y z
SIZE 4 4 4
TYPE F F F
COUNT 1 1 1
WIDTH 1487
HEIGHT 1
VIEWPOINT 0 0 0 1 0 0 0
POINTS 1487
DATA ascii
1.9663882 -1.4984429 0.28319299
2.0101969 -1.4541686 0.29645133
2.0128601 -1.3604128 0.29347229
1.6640916 -1.4032278 0.39133012
1.7501951 -1.4404628 0.38957632
1.9827967 -1.461537 0.3369683
2.0117488 -1.4088976 0.32555258
1.6741495 -1.3868247 0.39716125
1.7108672 -1.3816968 0.39351821
1.9967082 -1.3021545 0.33284461
2.0110703 -1.3815668 0.32808042
1.9959104 -1.2308928 0.38688803
2.0007319 -1.2570883 0.37975907
1.9842852 -1.1908342 0.39559793
2.0046413 -1.1775136 0.36548531
1.650326 -1.4018319 0.40769362
1.7323203 -1.40774 0.40136945
2.0183449 -1.4273292 0.49414349
1.6750044 -1.3722935 0.42824936
1.7488855 -1.3481826 0.49201548
2.0258136 -1.3933713 0.49573922
1.696548 -1.2326043 0.43882799
1.7032886 -1.280576 0.42639899
1.6653328 -1.1178001 0.49020386
1.7548946 -1.1258823 0.47801864
1.8116553 -1.1448269 0.44607699
1.9820275 -1.1803805 0.40973163
2.0033064 -1.1248665 0.4334501
1.6760918 -1.0928402 0.4689399
1.7902418 -1.0710136 0.48222482
1.844479 -1.0718577 0.4802494
1.9883738 -1.0745112 0.47162342
2.032795 -1.0558016 0.4606905
1.657884 -1.4262786 0.58994401
1.7193074 -1.4013278 0.57156765
2.0147598 -1.4047868 0.51412082
1.6615512 -1.3821855 0.58865082
1.7257416 -1.3342283 0.5637629
2.0147924 -1.3970885 0.51603937
1.6956693 -1.2204647 0.56204009
1.7058394 -1.257829 0.5790416
1.9912717 -1.2761481 0.5608983
2.0023103 -1.2480993 0.54843938
1.6831516 -1.134358 0.56759179
1.7328758 -1.1057384 0.58223438
1.875037 -1.102643 0.56827497
1.9754099 -1.1946926 0.57548392
2.0051639 -1.1952431 0.54559374
1.6886604 -1.0776255 0.57176661
1.7717297 -1.0803757 0.5975709
1.8443667 -1.0842831 0.58955395
1.9629617 -1.0820098 0.58423567
2.0079641 -1.0670125 0.50153553
2.1766837 -0.42422268 0.56802368
2.5360639 -0.41288495 0.5963819
2.2508509 -0.34190965 0.58478713
2.1753464 -0.27785271 0.59532285
2.2543502 -0.25394338 0.59057713
2.2183142 -0.1883221 0.59803367
2.3457258 -0.15117858 0.59424305
2.4715185 -0.14979619 0.57166076
2.5083058 -0.11116329 0.56479883
2.3633187 -0.09745615 0.59419739
2.4335222 -0.088671565 0.58983576
2.5559442 -0.046908654 0.58902144
2.626523 0.010305643 0.58675826
2.3129368 1.2899308 0.58962989
2.33219 1.3071039 0.58114493
1.6767848 -1.418998 0.60024297
2.0381253 -1.4115472 0.69847012
1.6809361 -1.3849088 0.60711646
1.7413409 -1.3405716 0.69226718
2.0292115 -1.3940706 0.6969192
1.698788 -1.217129 0.65993881
1.7051429 -1.2376755 0.62703073
2.0545273 -1.2904272 0.62669611
1.6862053 -1.1660411 0.62536144
1.7794766 -1.1077182 0.68002009
1.8286757 -1.1049056 0.69281662
1.9643229 -1.1032619 0.6821692
2.0120511 -1.1249506 0.68048775
1.5925661 -1.0264859 0.63339913
1.6300501 -1.0518837 0.62372422
1.7500558 -1.0846405 0.67692351
1.8349085 -1.0891223 0.68786395
1.9241288 -1.0840712 0.69259501
2.0271192 -1.0538075 0.64011991
2.4972472 -0.46567214 0.63052869
2.5612564 -0.40745914 0.66183615
2.6194689 -0.42641574 0.68475175
2.2329643 -0.35901108 0.69603729
2.4646854 -0.37577969 0.67052734
2.5195379 -0.3695282 0.65321994
2.1619334 -0.23569398 0.61479259
2.2310891 -0.20507354 0.66750145
2.4558406 -0.24725991 0.69563746
2.5087237 -0.22258431 0.67381656
2.1699111 -0.15570489 0.63129652
2.260026 -0.12962963 0.67343998
2.3270502 -0.13096446 0.6819458
2.4860179 -0.18071008 0.69241691
2.5040545 -0.14316866 0.69118643
2.1336832 -0.055871863 0.69137132
2.2424636 -0.079895839 0.69760275
2.3434145 -0.080358639 0.69497097
2.4272795 -0.089781396 0.69573307
2.5059636 -0.093925603 0.6870811
2.3499153 0.012713385 0.63683701
2.4561749 0.0090130325 0.61732197
1.9968495 0.95951349 0.68106294
2.0777223 0.98251259 0.6955874
2.1757183 0.99546683 0.69480133
2.2159104 0.99488962 0.68475056
2.3198218 0.9964211 0.68870807
2.0265002 1.0732548 0.68814385
2.167475 1.0069182 0.67457175
2.21944 1.0112067 0.67621696
2.3093548 1.0111635 0.69192779
2.2982359 1.1153208 0.64301956
2.3243122 1.130777 0.69500005
2.0506506 1.2755023 0.69372773
2.3371129 1.2965242 0.69837642
2.0821061 1.3181248 0.61566782
2.3424423 1.3048261 0.68976736
1.6765842 -1.4041505 0.75725687
1.7372067 -1.4057788 0.77457464
2.0108924 -1.4046998 0.70694816
1.6666447 -1.364212 0.78860724
1.7288958 -1.3278955 0.70617962
2.0197115 -1.3816233 0.711936
1.6961265 -1.2601926 0.79096603
1.7122155 -1.2524705 0.71973062
1.9886129 -1.2569852 0.74554777
2.0072351 -1.2674426 0.73285937
1.6836147 -1.1253899 0.75551462
1.7784948 -1.1174643 0.7680521
1.8507984 -1.103447 0.76681316
1.9787422 -1.1937525 0.76091897
1.5909097 -1.0428425 0.79284346
1.6323394 -1.0592864 0.7788595
1.7749619 -1.0892735 0.78666639
1.8492646 -1.088845 0.70673323
1.9532896 -1.0818428 0.70701957
2.0108027 -1.0574908 0.70978308
2.1856403 -0.43164897 0.72869039
2.5417242 -0.41653031 0.77445567
2.2314546 -0.34314311 0.77592969
2.3144627 -0.30985785 0.74354863
2.4973397 -0.39445138 0.7970767
2.5462635 -0.3838506 0.7724911
2.6483846 -0.32062387 0.70758212
2.1615324 -0.24057247 0.77116334
2.2298894 -0.20845714 0.75253439
2.4533234 -0.21194863 0.7071197
2.5281405 -0.23074879 0.79656231
2.6122379 -0.25822112 0.71368968
2.1706274 -0.16142021 0.78522933
2.2728744 -0.10687871 0.74028206
2.349401 -0.1041358 0.77112365
2.4722471 -0.10358043 0.78967714
2.5233359 -0.17381464 0.79594839
2.6157105 -0.17838104 0.73453879
2.1966457 -0.080103591 0.79539227
2.2207785 -0.074042976 0.79247093
2.3250775 -0.077363476 0.79802513
2.4220324 -0.082283296 0.79742253
2.5042782 -0.095479779 0.75043941
2.3503494 0.017917335 0.79248548
2.4441056 0.016322231 0.77804732
2.621963 0.0098023415 0.74945772
1.9947168 0.98361611 0.78598976
2.0489774 0.9500792 0.79176712
2.1661675 0.97621375 0.79161084
2.2743726 0.99145353 0.76642466
2.3096209 0.99834728 0.77407336
1.9750994 1.0141909 0.78062809
2.0357804 1.0874774 0.78958106
2.1796052 1.0048673 0.70899594
2.218796 1.0119547 0.7081238
2.3151939 1.0064654 0.76548421
2.0397439 1.1213573 0.79198086
2.3314652 1.1153929 0.79251337
2.0556383 1.2526355 0.78264272
2.3420739 1.2625668 0.77344799
2.0937014 1.3232396 0.73333728
2.3419652 1.3011049 0.76397324
1.7412844 -1.405378 0.86901778
2.0297709 -1.4100039 0.87197804
1.7314714 -1.3362874 0.86261225
2.0353239 -1.3839575 0.87223148
1.6700777 -1.249128 0.81412166
1.7111831 -1.2657057 0.87698638
1.9850235 -1.204242 0.84195131
2.0111909 -1.2766572 0.88241917
1.6795769 -1.1264251 0.82695806
1.7838302 -1.1066041 0.83188117
1.8481672 -1.1070102 0.84755909
1.935708 -1.1085553 0.84167087
2.0079434 -1.1439037 0.83703351
1.5940739 -1.0617602 0.82925802
1.6533821 -1.0736562 0.818609
1.7204363 -1.074826 0.83898491
1.8553393 -1.0902138 0.84634781
1.9340943 -1.0884666 0.85323453
2.0220633 -1.0508242 0.84922338
2.1785655 -0.42816687 0.89149243
2.5364497 -0.42402384 0.84790623
2.6164994 -0.42470312 0.82966137
2.1902261 -0.39383411 0.88405722
2.2335515 -0.31632283 0.85602689
2.4571199 -0.38039982 0.81659853
2.5484619 -0.37552741 0.88596511
2.6373777 -0.31186461 0.847664
2.2282972 -0.27164364 0.87324035
2.4421499 -0.21936356 0.84518284
2.5290837 -0.2274877 0.88457119
2.6098223 -0.25686455 0.85330462
2.1975656 -0.14144039 0.82759106
2.2269158 -0.10697386 0.87312955
2.3593097 -0.1050529 0.88669407
2.4857366 -0.10329004 0.87734556
2.5226493 -0.16511747 0.89351648
2.6095715 -0.1836974 0.86864913
2.1296496 -0.056587759 0.83297753
2.2526836 -0.067919068 0.88243276
2.3267703 -0.070386268 0.89499497
2.4426804 -0.084652975 0.8936004
2.5102005 -0.092673026 0.87841272
2.250309 0.02204895 0.89562261
1.9952331 0.88715076 0.85959697
2.0054104 0.88533831 0.85358632
1.9952762 0.95970583 0.85822713
2.0439439 0.95807219 0.89286739
2.142622 0.9654457 0.88509399
2.2530413 0.99291843 0.85971922
2.3072968 0.99586093 0.84493947
1.97789 1.0060869 0.87173468
2.0420125 1.0573548 0.89011711
2.1679294 1.0035609 0.85055166
2.2527299 1.004931 0.85158384
2.311655 1.0050213 0.88692814
2.0480132 1.1359998 0.89027703
2.1113787 1.1356781 0.89241463
2.2988501 1.1277478 0.87219661
2.3276803 1.116231 0.82016921
2.0585585 1.2571062 0.87325203
2.1928673 1.2733147 0.89715511
2.2199841 1.2737247 0.89276373
2.3399909 1.2894564 0.88458455
2.4149489 1.2765988 0.83095574
2.5046661 1.2316959 0.80103016
2.0842774 1.3051935 0.80818969
2.1647284 1.3308376 0.8950513
2.2718236 1.3039702 0.89621258
2.3376031 1.3083848 0.89741731
2.4069433 1.3354635 0.86308813
2.3960893 1.4052967 0.85576248
2.4320037 1.4006765 0.85674858
1.6733198 -1.40591 0.93692601
1.7664393 -1.4550325 0.90326953
2.0194035 -1.4154516 0.9487375
1.621817 -1.3302314 0.98568058
1.7270733 -1.3488748 0.90670776
2.0202026 -1.3556693 0.97705215
1.6914673 -1.2178938 0.9209224
1.7024002 -1.2753714 0.97076988
1.9872352 -1.2585659 0.97740239
2.0032058 -1.2545555 0.96778071
1.6776986 -1.1094601 0.9636457
1.7610886 -1.1115026 0.98771918
1.8673768 -1.1071492 0.99581689
1.9848909 -1.1673131 0.9778055
2.0125947 -1.1586851 0.94591451
1.5912251 -1.0468305 0.95691699
1.6360619 -1.0497471 0.95982718
1.7562894 -1.0828648 0.99141741
1.8247844 -1.0908487 0.99588549
1.9539664 -1.0913539 0.99135816
2.0244462 -1.0304434 0.99195206
2.4869366 -0.43926522 0.93725646
2.5444705 -0.41703594 0.93738407
2.6271586 -0.43551219 0.9663285
2.1724324 -0.32241485 0.98393309
2.2577891 -0.36078444 0.99696243
2.3639979 -0.38015801 0.9924475
2.4307885 -0.38611221 0.97659254
2.5306582 -0.38830072 0.98077255
2.6283669 -0.31791398 0.96980739
2.1786306 -0.22110333 0.94831038
2.2153411 -0.22032455 0.99674368
2.3050988 -0.2831471 0.908813
2.4347589 -0.235588 0.98118699
2.5151918 -0.22393273 0.99552095
2.6129987 -0.2806583 0.98569489
2.1985474 -0.16120853 0.96432966
2.2128181 -0.14805688 0.99423051
2.351378 -0.10566701 0.91650057
2.4896965 -0.10131855 0.95020688
2.5093992 -0.14635554 0.99294907
2.1684647 -0.060590625 0.95583129
2.2455802 -0.040791143 0.99407655
2.3476439 -0.069126688 0.99135667
2.4767075 -0.086771712 0.96569586
2.5092931 -0.088633016 0.98757076
2.3518696 0.012566149 0.94370508
2.4424891 0.014203548 0.93256086
2.6235657 0.0045027733 0.90787899
2.0148408 0.8702631 0.97555238
2.2578878 0.89909315 0.9508881
2.3119636 0.88427138 0.92845666
1.9961994 0.96298444 0.97316527
2.0445199 0.95555019 0.99169374
2.167357 0.97025079 0.96270943
2.269047 0.99213177 0.97977984
2.3046169 0.99513888 0.97518259
1.9793142 1.0027893 0.97601664
2.0483737 1.0788661 0.99296534
2.1836796 1.0044968 0.98349643
2.2065091 1.0088444 0.97024202
2.3100123 1.0031912 0.95091033
2.053093 1.1622187 0.99513894
2.1107826 1.1689312 0.92846036
2.2803872 1.1589515 0.97358221
2.3288321 1.1322198 0.94268274
1.9948583 1.2471898 0.92168599
2.0606117 1.2579463 0.98594022
2.1771653 1.2444469 0.99496937
2.2176371 1.2466204 0.99574471
2.3428445 1.2461751 0.91268557
2.4099126 1.2888708 0.94784886
2.172102 1.3064977 0.90911138
2.2625422 1.3057554 0.99306524
2.3419099 1.3072524 0.92712063
2.4293456 1.3867593 0.98108435
1.7397337 -1.4115622 1.0210001
2.0097728 -1.419637 1.0569532
1.5953131 -1.3084941 1.0303533
1.6501956 -1.3352032 1.0369041
1.7327764 -1.3647382 1.0955511
1.8752379 -1.3692676 1.0906329
1.9368423 -1.3636529 1.092972
2.0058155 -1.3306596 1.0962929
1.6938343 -1.2147951 1.0396653
1.7144103 -1.2782789 1.0364408
1.9828182 -1.2142844 1.0970659
2.0053871 -1.2747245 1.0790873
1.6768554 -1.1548921 1.0671995
1.7579292 -1.1106063 1.0618653
1.8440475 -1.1031073 1.0851505
1.9723686 -1.1542673 1.0967636
2.0045063 -1.1758684 1.0777571
1.5897219 -1.0738508 1.0973893
1.677702 -1.0923803 1.0827752
1.755113 -1.0926093 1.0796571
1.8389952 -1.0955236 1.0908952
1.9645268 -1.0675418 1.0948762
2.0067816 -1.0656896 1.050989
2.1722953 -0.40557241 1.0555985
2.4929619 -0.4636333 1.067187
2.5306292 -0.41458613 1.07505
2.1834497 -0.31661719 1.0796847
2.2315049 -0.33590713 1.0952858
2.3760366 -0.38064608 1.0784187
2.4380484 -0.38283759 1.0692235
2.5057838 -0.3861568 1.0481794
2.6184626 -0.35049868 1.0414873
2.1824946 -0.24901327 1.0480027
2.2212086 -0.25142851 1.0933771
2.4931488 -0.20861638 1.057266
2.5324581 -0.21091971 1.0961463
2.6149402 -0.22331196 1.0154135
2.1970282 -0.16231097 1.02003
2.2214432 -0.14173725 1.0979007
2.387136 -0.10320258 1.0397434
2.4886227 -0.10461071 1.0856664
2.5202701 -0.15554656 1.0952249
2.6103454 -0.18057673 1.0055723
2.181088 -0.058141999 1.0958298
2.2270336 -0.050217099 1.0898374
2.3505828 -0.078324422 1.0858414
2.4932697 -0.084901534 1.0812119
2.5172465 -0.084664926 1.088351
2.6262407 -0.0028572083 1.0641602
2.2605693 0.0084045231 1.0701747
2.3543191 0.015782118 1.0941899
2.4438457 0.018519819 1.0855069
2.026845 0.88771319 1.0963974
2.1901212 0.84633887 1.0866032
1.9933048 0.96042502 1.0739119
2.0536544 0.96808499 1.0955448
2.1287508 0.95896959 1.0826738
2.2902277 0.98971438 1.0377791
2.3090961 0.9968276 1.0811458
1.9518762 1.0222574 1.0640485
2.0642183 1.0798119 1.0961031
2.1814673 1.0085951 1.0732849
2.2312741 1.0210987 1.0881397
2.3265429 1.0074575 1.0978651
2.096163 1.1863457 1.0970814
2.1024141 1.179647 1.054395
2.2936416 1.1452986 1.070318
2.3325505 1.1264234 1.0773984
1.9907752 1.2480881 1.0329423
2.087774 1.2504756 1.0918803
2.115664 1.2661109 1.0892236
2.2265668 1.2755175 1.094008
2.3493004 1.262453 1.0448493
2.4146552 1.2737448 1.0823405
2.0857296 1.3084888 1.0673679
2.1585503 1.3138096 1.0973185
2.2016582 1.3405203 1.083921
2.3451483 1.30211 1.035586
2.4279618 1.3743145 1.0974002
1.6640702 -1.4099333 1.1206359
1.7469931 -1.4310527 1.1662302
1.991281 -1.4230051 1.1810026
2.0152354 -1.4040897 1.1375301
1.5941677 -1.3173372 1.1156886
1.6414224 -1.3334297 1.1421649
1.7280749 -1.3621809 1.181392
1.8502584 -1.3608904 1.197755
1.9429111 -1.3819033 1.1918905
2.0178742 -1.3696616 1.1692035
1.6868362 -1.21336 1.132737
1.7133 -1.2815369 1.183269
1.9882033 -1.2081923 1.1980964
2.0029271 -1.2638339 1.1967131
1.5778877 -1.1037214 1.1063552
1.6767133 -1.1213756 1.128943
1.7599783 -1.1020199 1.1599221
1.8666302 -1.1038481 1.1786466
1.9649184 -1.1350219 1.1955065
2.0236158 -1.1063077 1.1874945
1.5832218 -1.0401146 1.1116815
1.663383 -1.0749073 1.1784291
1.7782474 -1.0561774 1.1954739
1.8163168 -1.0932076 1.1942034
1.9848322 -1.0874054 1.1985552
2.0068111 -1.096648 1.1922506
2.2392108 -0.40780324 1.1846435
2.4892688 -0.46477622 1.1577052
2.5236228 -0.41938105 1.1676211
2.6247535 -0.41993099 1.1092832
2.1985879 -0.31571358 1.1420543
2.2261519 -0.32348162 1.191505
2.3386703 -0.37560588 1.1773028
2.4220226 -0.38051426 1.1754814
2.5118799 -0.38670731 1.1390265
2.6192851 -0.31887874 1.1320254
2.198674 -0.23836997 1.1492617
2.2205286 -0.24850701 1.1946505
2.4331834 -0.22492109 1.1207116
2.5284719 -0.21699759 1.1925864
2.6174965 -0.24487634 1.1299758
2.1993041 -0.14370535 1.1796296
2.2162204 -0.15336274 1.1969388
2.3859401 -0.10274928 1.1584842
2.4932222 -0.15019847 1.1885108
2.5248704 -0.13640553 1.1891272
2.6083171 -0.17324108 1.1395948
2.1911697 -0.059443548 1.1437162
2.2297766 -0.068727165 1.1933148
2.3161571 -0.055930071 1.1690331
2.4893169 -0.073667228 1.1896559
2.5182869 -0.082431793 1.1718214
2.2510743 0.010082669 1.1405704
2.3324037 0.014384031 1.1096936
2.3006501 0.1176908 1.1649871
2.0078819 0.88516784 1.1028774
2.1609695 0.8995533 1.1185584
2.2448864 0.87605226 1.1461911
1.9961534 0.97391021 1.1218793
2.0420582 0.97400439 1.1731024
2.1499567 0.96747023 1.1578925
2.2853556 0.99545443 1.1096743
2.3030295 0.99798763 1.1052268
1.9304897 1.0103679 1.1610641
2.0542586 1.0530144 1.1598575
2.1838706 1.0071807 1.1151366
2.2981491 1.0041099 1.1991435
2.3196769 1.007032 1.144268
1.9859576 1.1848705 1.1783004
2.0683837 1.1480538 1.1433386
2.1018867 1.174787 1.1892285
2.2845511 1.1685851 1.1796248
2.3312378 1.1291722 1.1919713
1.9831729 1.2450047 1.1348007
2.0793417 1.2330546 1.1282797
2.1155941 1.2848284 1.1122963
2.2134509 1.2691442 1.1957834
2.3559122 1.2449987 1.178683
2.4066148 1.2698214 1.1875743
2.076726 1.3117208 1.1892422
2.1453259 1.3043566 1.1402918
2.2765627 1.3037454 1.1625001
2.3460562 1.3073279 1.1648722
2.4127464 1.3325899 1.1454635
1.6721201 -1.4357017 1.2942426
1.7081548 -1.4031658 1.2611423
1.972822 -1.4164813 1.2632376
2.008976 -1.4059999 1.2704372
1.5927109 -1.3169963 1.2041872
1.6601471 -1.3366084 1.2471001
1.7329531 -1.3408201 1.2421108
1.8404533 -1.3779445 1.2490904
1.9538512 -1.3789215 1.2726891
2.0228832 -1.3705832 1.2522302
2.1118937 -1.349129 1.2155731
1.6980516 -1.2108973 1.2483982
1.7122787 -1.2481637 1.2403032
1.8587654 -1.2393703 1.2592037
1.9878072 -1.2254746 1.2937229
2.0040302 -1.2741363 1.2933936
1.5769141 -1.1005032 1.2311594
1.689487 -1.1525228 1.2588816
1.7029114 -1.1892608 1.2508559
1.8733923 -1.101768 1.2325323
1.9631598 -1.1269848 1.2936964
2.0202725 -1.1033318 1.2741791
1.588993 -1.052793 1.2554121
1.6820822 -1.0871619 1.2694035
1.7540437 -1.0823114 1.2534565
1.8465379 -1.0858201 1.2314425
1.9835157 -1.0882441 1.2481737
2.0091596 -1.0979375 1.2771103
1.5914508 -0.99576187 1.2777563
1.7348239 -0.99657869 1.2907768
2.4596348 -0.50839305 1.2715745
2.5417943 -0.52995157 1.2666245
2.1791286 -0.41529864 1.208218
2.2486424 -0.4005824 1.2667191
2.3996985 -0.47615671 1.2343525
2.492413 -0.48417562 1.268322
2.5092654 -0.42465991 1.2856207
2.6259542 -0.42176205 1.2481089
2.1964641 -0.30661017 1.2346927
2.2301919 -0.33105409 1.2744136
2.3189719 -0.37115154 1.259449
2.4137132 -0.38055503 1.2790303
2.5076857 -0.38647878 1.2482237
2.6157188 -0.34699982 1.270432
2.1977456 -0.2285464 1.2192305
2.2231717 -0.25214696 1.2774534
2.4737241 -0.25566444 1.2255991
2.5306172 -0.24500972 1.2736783
2.6087234 -0.25612062 1.2618409
2.1980791 -0.13921219 1.2077352
2.2188075 -0.1532025 1.2793412
2.372354 -0.10190206 1.2755616
2.4969907 -0.11180716 1.2777845
2.5212903 -0.14368725 1.2690083
2.6056328 -0.18765271 1.2701771
2.1893144 -0.042347614 1.2038983
2.2244058 -0.067424186 1.2779181
2.3191562 -0.067373492 1.2957004
2.4939823 -0.080157682 1.286834
2.5146637 -0.081638888 1.2579235
2.1468432 0.0030858517 1.2855815
2.2525368 0.033694975 1.2501042
2.3493969 0.018203458 1.2428746
2.4431038 0.014545977 1.2360017
2.5712357 0.00080776215 1.22875
2.6068311 0.012068987 1.2230413
2.0061984 0.88666892 1.222193
2.1601412 0.89183629 1.2893455
1.8945644 0.98981261 1.2646447
1.9948463 0.95894504 1.2310604
2.0510497 0.95268762 1.2579846
2.1308265 0.96239388 1.2398072
2.2799468 0.99529052 1.2918431
2.3065901 0.99913216 1.2906735
1.9465717 1.0297155 1.2549195
2.0579202 1.0496961 1.2457578
2.1822486 1.0077707 1.2614408
2.2937083 1.002347 1.2320948
2.313127 1.004723 1.2887225
1.9366292 1.1801953 1.2542813
2.0696175 1.1488494 1.231402
2.1026173 1.1847529 1.2910101
2.2838249 1.1652374 1.2782028
2.3330462 1.1668904 1.294558
1.9937867 1.2489809 1.2423527
2.080946 1.2279396 1.2189503
2.1188602 1.2837524 1.2427181
2.23101 1.2797812 1.2936672
2.3555446 1.2680597 1.2972498
2.4015775 1.2546618 1.2852254
2.0725217 1.3103678 1.2801514
2.1726177 1.3158464 1.2821541
2.2174168 1.3344104 1.272261
2.3530402 1.3066909 1.2940898
2.4095154 1.3122532 1.279164
2.4185145 1.4135355 1.2304199
1.6766387 -1.4284139 1.3071811
1.7360934 -1.4091535 1.3287375
1.8957255 -1.409024 1.3328798
1.9759973 -1.4046122 1.3507111
2.0069392 -1.4043312 1.3549705
1.6871701 -1.339186 1.3769741
1.7332588 -1.3265747 1.3657447
1.8589015 -1.3752487 1.3735204
1.964463 -1.3797023 1.3540096
2.0200486 -1.3713629 1.3390938
2.108809 -1.3271257 1.3414347
1.5723221 -1.2984406 1.3865359
1.6981792 -1.2109889 1.327003
1.7127268 -1.2517471 1.3481796
1.9869325 -1.2141075 1.3946656
2.0039086 -1.2617893 1.3913333
1.5801659 -1.1033223 1.3544188
1.6860603 -1.1400169 1.3372684
1.7014315 -1.1743182 1.3302491
1.874229 -1.1012857 1.3719971
1.9419701 -1.1211426 1.384227
2.0263038 -1.1073744 1.3572625
1.5945673 -1.0882649 1.3469745
1.6864855 -1.088648 1.3430755
1.749265 -1.0837561 1.3311377
1.8496189 -1.087338 1.3502296
1.9846613 -1.0895751 1.3658366
2.0071387 -1.097892 1.3613607
1.68699 -0.98176527 1.3354976
1.8143586 -0.95730805 1.3484993
2.5461867 -0.52218997 1.3645875
2.1744561 -0.41370487 1.3636837
2.3950593 -0.402334 1.300861
2.4908867 -0.42165235 1.381856
2.5112174 -0.41246918 1.3515905
2.6172185 -0.43450746 1.3845143
2.1974378 -0.30493149 1.3571291
2.2349052 -0.3234759 1.3564724
2.3831029 -0.37920198 1.3629543
2.4294083 -0.38286722 1.3686415
2.5291038 -0.39035764 1.3464706
2.6218739 -0.33305266 1.3898445
2.1949453 -0.24908689 1.3636024
2.2326312 -0.24901024 1.3578637
2.4861758 -0.22135049 1.3491945
2.5288742 -0.28132007 1.3178039
2.6144676 -0.24685469 1.3947911
2.1973367 -0.15204062 1.3311403
2.2286029 -0.1534335 1.3591635
2.3924389 -0.10432167 1.3501549
2.4974496 -0.16457371 1.3928372
2.5205681 -0.15443183 1.3456898
2.6052172 -0.17344311 1.3841608
2.1936388 -0.044806689 1.3590442
2.2459016 -0.068078518 1.3554783
2.3130422 -0.038193509 1.38765
2.4946225 -0.050527386 1.3372324
2.5173395 -0.075813286 1.3396238
2.184876 0.00073814392 1.392006
2.2497916 0.013335479 1.3754916
2.335741 0.0067627234 1.3805593
2.4531784 0.021735728 1.3856044
2.6158156 0.018753529 1.3768042
2.0445018 0.86996132 1.3286041
2.240099 0.89762926 1.3849218
1.8871239 0.95445818 1.3946548
1.99481 0.95486665 1.3632529
2.0536375 0.95697725 1.3402784
2.1641746 0.96466655 1.335779
2.2719226 0.986853 1.3876557
2.3023877 0.99625432 1.3821816
1.929749 1.0051935 1.3308663
2.0642247 1.0498058 1.3295555
2.18049 1.0125362 1.3938632
2.2925022 1.0015668 1.3794848
2.3151693 1.0025045 1.3798709
2.0817928 1.1579305 1.3298736
2.1010487 1.190254 1.3190402
2.2940755 1.1234965 1.3377473
2.3324966 1.1141822 1.3330463
2.4584918 1.1894044 1.3551209
1.9916186 1.2463316 1.3518374
2.0800734 1.2305998 1.3517333
2.1339469 1.2904387 1.3816628
2.2942629 1.2144842 1.3405358
2.3595371 1.2370241 1.3114593
2.4031799 1.255342 1.3549608
2.5144968 1.2165525 1.3903867
2.0683768 1.3078249 1.3736392
2.1603818 1.3065702 1.3766179
2.2459502 1.3140595 1.3888855
2.3498418 1.3031412 1.3099592
2.4129658 1.3228376 1.3453972
2.5164845 1.3151855 1.3738356
2.4161966 1.4085095 1.3465285
1.7600085 -1.4034551 1.4577243
1.8523085 -1.4399023 1.4466732
1.9574699 -1.4149164 1.4402282
2.0109296 -1.4047558 1.4503741
1.5775728 -1.3041193 1.4926893
1.6883092 -1.3141168 1.4915285
1.7332951 -1.3389448 1.4635115
1.8497202 -1.377254 1.4540223
1.9355831 -1.3832812 1.4408979
2.0086167 -1.3709949 1.4271361
2.1251791 -1.3439121 1.4670944
1.59315 -1.2683436 1.471837
1.6946205 -1.2087853 1.4596285
1.7140495 -1.2601645 1.4617395
1.9963171 -1.2396699 1.4697758
2.0040143 -1.2690574 1.4820403
1.686499 -1.1415638 1.4486284
1.7017055 -1.1886971 1.4245894
1.8712473 -1.1049088 1.4468329
1.9738964 -1.1513901 1.4539025
2.0306134 -1.1085267 1.4399111
1.5867903 -1.0340495 1.4229939
1.6895298 -1.0925444 1.4723878
1.7436885 -1.0857333 1.4377832
1.8449874 -1.0875304 1.4676335
1.9669416 -1.0777478 1.4510448
2.0074196 -1.0960348 1.4441261
1.6846082 -0.98823738 1.4593402
1.7046677 -0.96633303 1.4237537
1.8793684 -0.98304582 1.436537
2.4758601 -0.50773692 1.4782501
2.2650976 -0.40145481 1.4291668
2.3734407 -0.40054518 1.4419885
2.4432869 -0.40957159 1.4378586
2.5121946 -0.40775707 1.4574172
2.1942949 -0.31429267 1.4680173
2.2317882 -0.32282066 1.4388337
2.310972 -0.36911395 1.4712358
2.4375892 -0.38184512 1.4658793
2.5154142 -0.38972661 1.4449016
2.1961339 -0.23823112 1.4891915
2.229898 -0.24838781 1.4397483
2.4981341 -0.23312941 1.4252539
2.530319 -0.25727344 1.4533679
2.1978545 -0.1290044 1.4940734
2.2271667 -0.14940432 1.4403797
2.3606136 -0.10296264 1.4055383
2.4977934 -0.1399522 1.4602931
2.5223036 -0.13100371 1.4288218
2.6133299 -0.1717 1.4050775
2.1909642 -0.050181545 1.460302
2.2223592 -0.056578856 1.4406433
2.3735847 -0.063025907 1.4141688
2.4946039 -0.044096373 1.4188564
2.5175471 -0.071015522 1.4240589
2.0590363 0.01124382 1.40873
2.1492133 0.010649204 1.400628
2.2503052 0.022685692 1.4899168
2.0407169 0.88680792 1.4511786
2.1877832 0.87811166 1.4029487
2.2206786 0.87596273 1.436187
1.8790896 0.98705447 1.4097092
1.9844208 0.98708808 1.4541309
2.0517137 0.96946162 1.4311969
2.1461453 0.95884669 1.4549406
2.2685814 0.99063492 1.476503
2.3017476 0.99824858 1.4723725
1.8832026 1.0161055 1.48967
1.9581996 1.0101048 1.4604752
2.0640984 1.0497614 1.4550416
2.1859369 1.0076146 1.402043
2.2972543 1.0008448 1.4705307
2.3075852 1.0015662 1.4709591
1.9538336 1.1832863 1.4196603
2.0789919 1.1429925 1.4484434
2.1018374 1.1802083 1.4824383
2.29494 1.1230402 1.4220023
2.3380461 1.1228135 1.4578971
2.4372478 1.1817869 1.4402111
1.9931207 1.2210298 1.4412056
2.0924759 1.2289209 1.4804341
2.107336 1.2481079 1.4771197
2.2972119 1.2143096 1.4540728
2.3602531 1.2441068 1.4342918
2.4034531 1.2422441 1.4578674
2.5542626 1.2902613 1.4678729
2.0864305 1.3094974 1.462086
2.1771381 1.3133169 1.464941
2.2519581 1.3436286 1.4604816
2.3607488 1.3038182 1.4334278
2.408613 1.337484 1.4486486
2.2507982 1.4189316 1.4118162
2.4322276 1.4009123 1.4677106
1.7174349 -1.4095926 1.5387354
1.9394445 -1.4063066 1.5461228
2.0105779 -1.4024692 1.5521888
1.5909932 -1.30615 1.5485885
1.68293 -1.320962 1.570532
1.7386436 -1.3423091 1.541181
1.8189089 -1.3724612 1.5335476
1.9397283 -1.3839108 1.5256038
2.011055 -1.3725488 1.5171844
2.1263235 -1.3377421 1.5487242
1.5881793 -1.2300134 1.5207433
1.6981249 -1.2080935 1.5535295
1.7161642 -1.2582735 1.5486248
1.8433127 -1.2979686 1.5814602
1.9430275 -1.278433 1.5712118
2.0044513 -1.2605565 1.5740843
1.6868258 -1.1461697 1.5582024
1.7014418 -1.1881111 1.5544081
1.8559133 -1.1023641 1.5266827
1.9882864 -1.1277392 1.5517173
2.021394 -1.1056937 1.524225
2.1144989 -1.1519089 1.5528171
1.5854151 -1.0321245 1.5763811
1.6880156 -1.0924212 1.5608616
1.7518313 -1.0871105 1.5544994
1.8546871 -1.0897856 1.5431932
1.9755135 -1.0922499 1.5297356
2.0102406 -1.0991726 1.5252867
1.688118 -0.98432934 1.5345979
1.7646681 -0.9841581 1.5482148
2.2512281 -0.40002459 1.5126314
2.4565537 -0.42440572 1.5450661
2.5129256 -0.40827066 1.5487564
2.6156292 -0.42990834 1.5221345
2.1970401 -0.30428535 1.554846
2.2268476 -0.32416093 1.5497757
2.3658352 -0.37069929 1.5683223
2.4342279 -0.37915942 1.556987
2.516778 -0.38361907 1.5444865
2.6092904 -0.35514867 1.5118965
2.0930457 -0.24664295 1.5542324
2.1969569 -0.22191496 1.5352343
2.2258675 -0.25369853 1.5432652
2.4960251 -0.21357207 1.5230755
2.5290122 -0.25959677 1.5330052
2.6165559 -0.25304505 1.5272218
2.1995487 -0.12825784 1.544155
2.222888 -0.14872839 1.5408778
2.3652925 -0.10998131 1.5267825
2.4944067 -0.18438125 1.5217912
2.5228629 -0.15422469 1.5669998
2.6105316 -0.16443086 1.5323877
2.1981747 -0.051908497 1.5387259
2.2220907 -0.055936337 1.5587945
2.3369212 -0.053448804 1.5252931
2.4978523 -0.085126415 1.5236449
2.5129836 -0.071566939 1.5626776
2.144491 0.0082108974 1.5126281
2.2376571 0.029511537 1.5878049
2.355654 0.021109886 1.5394771
2.4281449 0.031116923 1.537294
2.5627563 0.0007815361 1.5340848
2.6080146 0.021515131 1.5300766
2.0258527 0.89456701 1.5655575
2.2004442 0.87966001 1.5049925
1.8931811 0.97174168 1.5570059
1.9885294 0.95957088 1.5329231
2.0616395 0.97821921 1.5367283
2.1250644 0.95824319 1.5515685
2.257566 0.98642445 1.5654575
2.3016508 0.99944806 1.561174
1.9194858 1.0221056 1.5607674
2.0669546 1.0507118 1.5783565
2.1195955 1.0720488 1.5615795
2.2957771 1.0004334 1.5616006
2.3141253 1.004374 1.5598319
2.0848048 1.1525788 1.5715163
2.1027827 1.1930609 1.5669969
2.2964959 1.1209319 1.5436628
2.3392363 1.1366268 1.5796092
2.4109099 1.1890081 1.5521258
1.9680612 1.2155099 1.5648491
2.0775037 1.2492863 1.5665048
2.1065459 1.2136824 1.5658128
2.2947321 1.2073827 1.5376151
2.3640356 1.2688702 1.558485
2.4032695 1.2578835 1.5500219
2.5517528 1.2873123 1.5580084
2.0874591 1.3180013 1.550806
2.1836028 1.3173716 1.5538495
2.2242489 1.3382614 1.5483279
2.3603783 1.3179033 1.562161
2.4032092 1.3237317 1.5771962
2.2674279 1.4084623 1.5434234
2.4252682 1.4073648 1.5848992
1.6820704 -1.4129045 1.6538936
1.7541313 -1.4062054 1.6811335
1.8983451 -1.4302588 1.63609
1.9408803 -1.4139912 1.655112
2.0076661 -1.4061646 1.6590074
1.6921648 -1.3271939 1.6429846
1.7291698 -1.3381618 1.6573329
1.8437432 -1.3770478 1.6391356
1.9459465 -1.381188 1.6600502
2.0094347 -1.3745439 1.6752304
1.696631 -1.2109579 1.6275431
1.7137017 -1.2646331 1.6550725
1.8568318 -1.2978661 1.672665
1.9758188 -1.2598605 1.6668384
2.0117023 -1.2820426 1.6638005
1.6817006 -1.1485142 1.6309798
1.7022069 -1.1928844 1.6277428
1.8661041 -1.1030747 1.6712711
1.9829034 -1.1712114 1.649657
2.0234566 -1.1055651 1.6873111
2.1031184 -1.1462344 1.6828294
1.5928189 -1.0754628 1.6024454
1.6880127 -1.0948163 1.6324205
1.7516316 -1.0850403 1.6420705
1.8413537 -1.0806442 1.6584171
1.9830379 -1.0860249 1.6427108
2.0069523 -1.0966418 1.6552811
1.659546 -0.98476946 1.6532109
1.7392001 -0.98400462 1.6622605
1.9317399 -0.99519658 1.6372476
1.6710434 -0.87130666 1.610477
2.4704194 -0.52630889 1.6758895
2.3955748 -0.4090645 1.6595637
2.4528065 -0.40786204 1.6667385
2.5034914 -0.40492433 1.6352221
2.6291659 -0.4402948 1.6564528
2.1928563 -0.30991006 1.6661099
2.2276983 -0.34432182 1.648736
2.380446 -0.3709811 1.6569428
2.4528747 -0.37854064 1.6482702
2.515599 -0.38461363 1.6433654
2.6111584 -0.3364104 1.6286508
2.1994758 -0.23833999 1.6808527
2.2171402 -0.24709645 1.6486672
2.49699 -0.2224737 1.6652189
2.5249474 -0.26377666 1.6362076
2.6131418 -0.24297498 1.6586834
2.198091 -0.13211574 1.6799718
2.2130046 -0.1527393 1.6442477
2.3816278 -0.10151988 1.6657887
2.4936361 -0.17300083 1.6199474
2.5200634 -0.13977815 1.6674311
2.617486 -0.15468885 1.6622291
2.1966052 -0.096443921 1.6797792
2.2258005 -0.061189435 1.6642356
2.3356853 -0.052288972 1.6177692
2.4963326 -0.069172814 1.6303027
2.5146475 -0.082482636 1.6579638
2.1681743 0.0035867691 1.6405227
2.2465956 0.017924959 1.6206883
2.3317883 0.0084267929 1.6860875
2.4302721 0.026862144 1.6783718
2.6040955 0.021633148 1.6822139
2.0081749 0.88715386 1.6938179
2.1855969 0.88530385 1.6280066
2.2204309 0.88489473 1.6247967
1.8702925 0.91702706 1.6513796
1.9925582 0.95425493 1.6586279
2.0493147 0.97413373 1.6636493
2.1542282 0.9645344 1.6500974
2.2668235 0.99168593 1.6517029
2.3011844 0.99967778 1.6498359
1.9451613 1.0118507 1.6384299
2.0662076 1.0507495 1.6601355
2.1810408 1.0083389 1.6768105
2.2943482 1.0011507 1.6493423
2.3054836 1.0023203 1.6492362
2.0791826 1.1459706 1.6559997
2.1050873 1.1853852 1.6704434
2.2965591 1.1413128 1.6278155
2.3391323 1.1549563 1.6987977
1.9947362 1.2247252 1.6492304
2.0924883 1.2262301 1.6519482
2.1241107 1.2784884 1.6485381
2.2833552 1.2409732 1.6279538
2.3609648 1.2898822 1.6793946
2.4028993 1.2817611 1.6627105
2.0680113 1.3050796 1.6395414
2.1625624 1.3036194 1.6520993
2.2912073 1.3019376 1.6568577
2.3647861 1.3040777 1.6851619
2.406033 1.3155593 1.6678216
1.732796 -1.4061742 1.7512238
1.8610191 -1.469955 1.7375497
1.964546 -1.4171324 1.7247238
2.0087211 -1.4024146 1.756428
1.6867994 -1.3185345 1.7469831
1.7295374 -1.3385307 1.7741932
1.8153689 -1.371789 1.7600996
1.9309065 -1.3819742 1.7577001
2.0196075 -1.3692043 1.753468
1.6956196 -1.2094294 1.7327459
1.7115793 -1.2562791 1.762929
1.816617 -1.2954907 1.7158445
1.9959887 -1.2158024 1.7816246
2.0054858 -1.2594794 1.7286596
1.6822554 -1.1555083 1.7486767
1.7027931 -1.1959217 1.7747349
1.8533773 -1.1053152 1.724969
1.9792589 -1.1638252 1.7607416
2.0563436 -1.1210625 1.7678167
2.105906 -1.1395702 1.7713312
1.5833029 -1.0333623 1.7295752
1.6697763 -1.0828078 1.762516
1.7528957 -1.0802839 1.7535988
1.8482054 -1.0807348 1.7714038
1.9661448 -1.0758032 1.7691779
2.0094831 -1.09699 1.7692903
1.6772711 -0.98434603 1.7456377
1.8219384 -0.96799886 1.754132
2.3764384 -0.40298927 1.74698
2.4895754 -0.40412033 1.7304187
2.5076156 -0.40483069 1.7339906
2.6215816 -0.44519049 1.7934626
2.1966913 -0.31274813 1.7464929
2.2291012 -0.34584591 1.7589849
2.3121915 -0.3599804 1.7469802
2.4184887 -0.37284857 1.7457185
2.5121877 -0.38414311 1.7401031
2.6085794 -0.33159131 1.7670215
2.1981792 -0.23003414 1.7048823
2.2235394 -0.24989107 1.7582419
2.4989259 -0.21243002 1.7243404
2.523699 -0.25581777 1.754171
2.6235561 -0.2511031 1.7948817
2.1985996 -0.11923403 1.7569443
2.2145517 -0.14744608 1.7573367
2.3732507 -0.10365324 1.7936289
2.4957361 -0.17477171 1.7247866
2.5180032 -0.12411579 1.74271
2.6188593 -0.16835691 1.7786587
2.0755615 -0.025069475 1.7188241
2.1939564 -0.037840601 1.7565217
2.2169495 -0.057299096 1.7561382
2.3854842 -0.058073588 1.756729
2.4977624 -0.081067339 1.7267318
2.5139523 -0.087782308 1.7380936
2.1478114 0.0046928227 1.7336068
2.2392583 0.022208955 1.7276641
2.2501619 0.89925396 1.796753
1.8998549 0.9658078 1.7944522
1.9855323 0.98184681 1.7722043
2.0564268 0.97872561 1.7430837
2.1608086 0.96473223 1.7388406
2.2678151 0.99233437 1.738561
2.3020849 0.99933535 1.7366722
1.8871803 1.0227294 1.7169969
1.9458541 1.020224 1.7155061
2.065912 1.0553107 1.741425
2.165482 1.0076137 1.7937559
2.2954273 1.0007789 1.7371968
2.3055878 1.0030355 1.7372286
2.080039 1.1503654 1.7392056
2.1018724 1.183978 1.7373782
2.2958789 1.146932 1.7681533
2.3405771 1.1130825 1.7026244
1.9987004 1.2464569 1.7602766
2.0802894 1.2439349 1.736968
2.1142015 1.2704614 1.7354422
2.2630494 1.292637 1.7493834
2.3521419 1.2706289 1.7027304
2.4029067 1.2703867 1.7408248
2.5104804 1.2538247 1.7473309
2.0728383 1.3120556 1.7258829
2.1892128 1.3167331 1.7330843
2.2471125 1.3394842 1.7397548
2.3617616 1.3055363 1.7518624
2.4056904 1.313025 1.7411911
2.4311018 1.4075909 1.7039409
1.7387682 -1.4122236 1.8340273
1.9595196 -1.4199394 1.8423501
2.0106983 -1.4028258 1.8377353
1.5762024 -1.3214618 1.8442348
1.6793939 -1.3193076 1.8348944
1.7348007 -1.334994 1.8510525
1.8488241 -1.3751991 1.8352672
1.9575169 -1.3778329 1.8359326
2.0250883 -1.3696433 1.8335708
1.5813076 -1.2731301 1.8420973
1.6993899 -1.2180917 1.8477751
1.7086245 -1.2422355 1.8486648
1.8830229 -1.2737595 1.8316708
1.9935467 -1.2165573 1.8522633
2.0095348 -1.2801497 1.8570248
1.6854577 -1.1427119 1.8461972
1.7043684 -1.1927941 1.8475218
1.8547291 -1.1208684 1.8188542
1.9769597 -1.1559749 1.839555
2.0620661 -1.1232619 1.8504496
2.1035218 -1.1365331 1.8464082
1.5815103 -1.0326991 1.8833324
1.6721971 -1.0857561 1.8448219
1.7431104 -1.0818608 1.8455142
1.8367146 -1.0797033 1.8465395
1.9428082 -1.0874825 1.8479053
2.0094843 -1.0943689 1.8488073
1.6874703 -0.95889771 1.8197262
1.7006885 -0.98793936 1.8703355
1.7008562 -0.87862682 1.8140593
2.3754978 -0.41379422 1.83325
2.4759552 -0.40729108 1.8295902
2.5090964 -0.40287679 1.8357694
2.1975477 -0.30797896 1.835443
2.2301462 -0.33195814 1.8380836
2.3758945 -0.36620092 1.8357018
2.4466891 -0.37521055 1.8347437
2.5077467 -0.3799634 1.8376515
2.6022115 -0.34932065 1.8593842
2.0968707 -0.25114501 1.8350905
2.197192 -0.22120196 1.8320129
2.2202754 -0.24855794 1.836792
2.4952996 -0.23546362 1.8149625
2.5247653 -0.26361755 1.852312
2.1982193 -0.12216893 1.8347882
2.2140062 -0.14979999 1.835335
2.3144825 -0.1203081 1.8227733
2.4946766 -0.18852262 1.8230833
2.5198822 -0.15807568 1.8565634
2.0682042 -0.028997362 1.8394716
2.1981709 -0.043831002 1.8338014
2.2133286 -0.070530973 1.8342152
2.3790622 -0.055915985 1.8564744
2.4966657 -0.071343213 1.834317
2.5100386 -0.082639836 1.8799313
2.6215167 -0.096476316 1.8281335
2.1657166 0.0080000646 1.8351771
2.2436543 0.022808082 1.8248672
2.3275511 0.015603778 1.831259
2.4281321 0.02163058 1.8324103
2.6136765 0.02039814 1.8342828
2.0527637 0.78265965 1.8859633
2.0106437 0.88389361 1.8107511
1.8876717 0.99302226 1.8580527
1.9938486 0.94845152 1.8098564
2.0521469 0.95421141 1.8227835
2.1508217 0.96185416 1.8247614
2.2760322 0.99428636 1.8253421
2.314142 0.99110627 1.8503531
1.9317381 1.0165582 1.8623222
2.0670907 1.0483122 1.8227534
2.1118021 1.0721802 1.8208104
2.2986145 1.0006778 1.8252404
2.3024013 1.0026019 1.8252127
2.0816939 1.1480232 1.82251
2.1004508 1.1955743 1.8214735
2.2983518 1.1139266 1.8292103
2.3385129 1.1219676 1.8236104
1.996016 1.2353555 1.8662447
2.0964098 1.2217371 1.8218454
2.1193998 1.2711351 1.8221424
2.2441721 1.2918224 1.8467672
2.3628354 1.2734127 1.8112969
2.4034274 1.2737814 1.8750916
2.0819068 1.3098829 1.817633
2.1573143 1.3028505 1.8465778
2.2874627 1.3035936 1.8639957
2.3586862 1.3068972 1.8141333
2.4053795 1.3168149 1.8393377
2.4348099 1.408381 1.8218098
1.7162415 -1.4030222 1.9658076
1.9757694 -1.4157654 1.9491127
2.0088196 -1.4032097 1.918365
1.5945947 -1.3001734 1.9409789
1.6878023 -1.3178476 1.9333906
1.7339743 -1.3373876 1.9282219
1.8743442 -1.3771248 1.9554352
1.9493248 -1.3790622 1.9344921
2.0094616 -1.3674332 1.955807
1.697757 -1.216826 1.9493321
1.7106872 -1.2479743 1.9565631
1.8509998 -1.2672118 1.9569947
1.998735 -1.2228317 1.9425673
2.0107629 -1.2791495 1.9533526
1.6789157 -1.1492677 1.9540377
1.7012486 -1.1963587 1.9586723
1.8859551 -1.1319177 1.9878697
1.9834442 -1.1740947 1.9531119
2.0252452 -1.1031131 1.9301089
2.1156521 -1.1300502 1.928109
1.578441 -1.0742133 1.9587315
1.6716783 -1.0799263 1.9554946
1.7545074 -1.0763857 1.9474716
1.8412672 -1.0765356 1.9629923
1.9949533 -1.0929693 1.9287789
2.0116339 -1.097443 1.9299369
2.1147599 -1.0732818 1.9215758
1.6757599 -0.97894251 1.945832
1.7069187 -0.97810006 1.9814663
2.3800163 -0.40764976 1.95741
2.4884491 -0.40724969 1.9442642
2.5023456 -0.403341 1.9205545
2.6237845 -0.42352033 1.9296801
2.1976056 -0.30957246 1.9166864
2.227577 -0.34083486 1.9572353
2.3725929 -0.36615503 1.9245682
2.4557095 -0.37520194 1.9272456
2.5077505 -0.38178781 1.9340149
2.6026201 -0.33932674 1.9745955
2.1962752 -0.21749657 1.913558
2.2168422 -0.24862731 1.9562092
2.4971073 -0.22788814 1.9210975
2.5243573 -0.24338642 1.9187057
2.6090858 -0.25013408 1.9202195
2.1968031 -0.12951818 1.9277442
2.2087035 -0.15268226 1.955995
2.3736701 -0.10714757 1.9193655
2.4949887 -0.18569481 1.9180688
2.5159969 -0.12864935 1.9729768
2.6095979 -0.16833921 1.917189
2.1962337 -0.089535564 1.9401138
2.2059331 -0.061480239 1.9613259
2.3467889 -0.04667433 1.9386494
2.4968057 -0.072763473 1.9341966
2.5092719 -0.079694264 1.9648592
2.6091921 -0.092818618 1.9131668
2.1544447 0.0084556956 1.9614044
2.210103 0.0082573015 1.9214098
2.3744671 0.016162006 1.9780908
2.4228292 0.0366503 1.9787718
2.5769725 0.019444346 1.986531
2.2777472 0.11025 1.9151813
2.0057898 0.89220738 1.9274621
2.266633 0.87930709 1.9174892
1.8913443 0.94783688 1.9546793
1.969202 0.9654541 1.9569479
2.0517263 0.97783512 1.9683648
2.14855 0.96154076 1.9775146
2.2451165 0.98559356 1.961068
2.3103292 0.99362892 1.947767
2.0668628 1.055004 1.9469875
2.1421824 1.0478253 1.9730197
2.2967896 1.0030336 1.9131734
2.3030005 1.0032907 1.9136118
2.0814164 1.1456435 1.945242
2.1008129 1.1898326 1.9065593
2.2963324 1.1168523 1.9439993
2.3384759 1.1338608 1.9478681
2.4503398 1.1969059 1.9544598
2.0863442 1.2423759 1.9766095
2.1093922 1.2588589 1.9081122
2.2181227 1.2859967 1.9245442
2.3649278 1.2648654 1.9363759
2.4014964 1.2567979 1.9548202
2.0846946 1.3066033 1.9078424
2.1849821 1.3230457 1.952521
2.2856305 1.3043483 1.936572
2.3645597 1.3029308 1.9366405
2.4077549 1.3226459 1.947683
2.4194751 1.4113848 1.9418147
1.7219741 -1.4023331 2.0676599
1.9765329 -1.4045086 2.0545816
2.0075598 -1.4057626 2.078752
1.6916507 -1.3373624 2.0531731
1.7394953 -1.348084 2.0587034
1.871882 -1.373777 2.0639169
1.9449083 -1.3764038 2.072819
2.0199041 -1.3678252 2.0786018
1.6984949 -1.2098898 2.0693536
1.7192266 -1.2691196 2.051158
1.9955146 -1.2275699 2.0472453
2.0062332 -1.2515157 2.053678
1.6936132 -1.1729388 2.065712
1.7015482 -1.1916 2.0680711
1.8409882 -1.103218 2.0409184
1.9819922 -1.1724339 2.0425475
2.0023215 -1.1956506 2.0454581
1.579627 -1.0297366 2.0433726
1.6611767 -1.0885203 2.0557389
1.7584798 -1.0826817 2.0649743
1.8471299 -1.0816585 2.0739117
1.9604033 -1.0756522 2.0455317
2.0013177 -1.0958377 2.0912547
1.6626437 -0.97160739 2.0889082
1.7254218 -0.96370089 2.0297809
1.6251221 -0.85846674 2.0460365
2.3920398 -0.40829706 2.0857491
2.4843011 -0.40536931 2.0724015
2.5123525 -0.40342629 2.094034
2.6237879 -0.4169783 2.0662875
2.195559 -0.32755154 2.0790281
2.2260888 -0.33907682 2.076731
2.3601706 -0.36323321 2.0416131
2.419647 -0.36990762 2.0157228
2.5082293 -0.37992626 2.0302696
2.6019316 -0.33487862 2.0909972
2.1987321 -0.23473406 2.0557342
2.2166421 -0.24683054 2.0730853
2.4972785 -0.22781211 2.0234606
2.5252633 -0.2662738 2.0485418
2.6162822 -0.23401389 2.0522034
2.1983733 -0.11853077 2.0678082
2.2148187 -0.14883816 2.0705478
2.3863764 -0.10588585 2.0478697
2.4988141 -0.1751442 2.0560884
2.5152502 -0.12076964 2.0538445
2.6060748 -0.17093265 2.0487349
2.1928406 -0.0287506 2.0656323
2.2201889 -0.065551169 2.0695381
2.3650532 -0.0487113 2.0533752
2.4980192 -0.073904708 2.0185533
2.510839 -0.086728826 2.0499601
2.1768737 0.0054927431 2.0690432
2.2158124 0.0019303696 2.0344336
2.0182419 0.88696349 2.0451097
1.8982635 0.9497478 2.0772524
1.9905486 0.95432335 2.0591817
2.0598123 0.97789049 2.0637641
2.1958566 0.97124857 2.0777514
2.2350717 0.98453557 2.0827653
2.306602 0.9976666 2.0828857
2.0685446 1.0489177 2.0676739
2.1197622 1.0626708 2.0803318
2.2865527 1.0028907 2.0888772
2.3034487 1.0091605 2.0900612
2.0860147 1.1457013 2.0737915
2.101445 1.1887996 2.0767858
2.296597 1.1550885 2.0973561
2.342999 1.1567633 2.0762269
2.4017539 1.1852584 2.0646296
2.0923734 1.2438211 2.0786023
2.1117439 1.2513711 2.080868
2.2291477 1.2902453 2.0557277
2.3630531 1.2694654 2.0623984
2.4058378 1.2588151 2.0902977
2.0812635 1.3037844 2.0889392
2.1862135 1.3042777 2.0450501
2.2765894 1.3026359 2.0728655
2.3626473 1.3064506 2.0701108
2.410836 1.3348192 2.0551317
2.4267063 1.415203 2.060813
1.7542689 -1.4213463 2.1233523
1.990247 -1.4171228 2.1360083
2.0047295 -1.4102244 2.1619084
1.6862304 -1.3116329 2.1126471
1.7299848 -1.3595171 2.1641345
1.8709881 -1.3735358 2.1412921
1.9664556 -1.3731868 2.1561632
2.014873 -1.3597093 2.161279
1.6945921 -1.2199509 2.1447217
1.7103215 -1.2684572 2.1517982
1.9971359 -1.2177563 2.13837
2.0066781 -1.2564964 2.1362557
1.6714398 -1.1514357 2.1353405
1.7018355 -1.1911775 2.1571209
1.8738922 -1.1202921 2.1564176
1.9690255 -1.1435797 2.1329505
2.0030196 -1.1956275 2.1591878
1.5798566 -1.0314959 2.1974137
1.6627289 -1.0756066 2.1363637
1.7500715 -1.0662885 2.136446
1.8315986 -1.0674368 2.1473522
1.9598217 -1.0738711 2.165159
2.007854 -1.0859931 2.1679394
1.6616489 -0.97652519 2.1545348
1.700549 -0.97562611 2.1913488
2.4706371 -0.51194841 2.1323814
2.5353198 -0.51622963 2.195874
2.4793234 -0.41110814 2.1164794
2.5035148 -0.40406302 2.1701467
2.1959968 -0.3166078 2.1635942
2.218564 -0.33564344 2.1560886
2.3633597 -0.36226067 2.1702793
2.4303184 -0.37054855 2.118926
2.5067611 -0.37935841 2.1278975
2.623457 -0.30680561 2.1978719
2.1987486 -0.21835837 2.1490495
2.2093327 -0.24719398 2.1518373
2.3695178 -0.28458929 2.167393
2.4950981 -0.22821996 2.1229072
2.5231683 -0.22790001 2.1729336
2.6080875 -0.24791962 2.1862812
2.194428 -0.13724925 2.1465778
2.2035291 -0.16015206 2.1485174
2.3756261 -0.10556348 2.1669412
2.4939659 -0.18498367 2.1211951
2.5148292 -0.13894469 2.126363
2.6070082 -0.18457666 2.1806469
2.1803927 -0.067388721 2.1428978
2.2123327 -0.046150506 2.1473155
2.3411024 -0.044573292 2.1164186
2.495265 -0.091868311 2.1393986
2.5079348 -0.070053384 2.1364131
2.1728642 0.0044741929 2.161479
2.2233162 0.0056016101 2.1352353
2.3607347 0.019128937 2.126441
2.4255695 0.04014492 2.1264405
2.577147 0.015142083 2.13871
2.0305722 0.88899219 2.1503208
1.8787069 0.94926298 2.1776471
1.9898081 0.97746742 2.1665535
2.04656 0.97992581 2.1433184
2.1937051 0.97369397 2.1630874
2.2363749 0.98703647 2.1701484
2.3044159 0.99634081 2.1545913
1.9246061 1.0105811 2.1436615
2.0559492 1.0518208 2.1487803
2.1507146 1.0041467 2.1936369
2.2894762 1.0032018 2.1578171
2.3135939 1.0127738 2.1795259
2.4110692 1.0472218 2.1017809
2.0707884 1.1421483 2.156296
2.1038582 1.1544049 2.1130428
2.2986975 1.1128237 2.1457806
2.3330522 1.1095829 2.1812222
2.40343 1.1871123 2.1403663
2.0735683 1.2290022 2.1615734
2.1059799 1.2538755 2.1680238
2.2900019 1.2274697 2.1630418
2.3670413 1.2464154 2.185885
2.4060633 1.245958 2.1377363
2.0785098 1.3033946 2.1802702
2.1949906 1.3109152 2.1436555
2.2688031 1.3025336 2.1462998
2.3611739 1.3145906 2.1061208
2.4129472 1.3336692 2.1606874
2.4264238 1.4139528 2.1805122
1.9873731 -1.4135321 2.2664013
2.0132916 -1.4066361 2.252079
1.689393 -1.3317419 2.2163489
1.7300631 -1.3387899 2.2413104
1.866442 -1.3681083 2.2358339
1.9605985 -1.3702002 2.2366183
2.0108535 -1.3629726 2.2435665
1.6952177 -1.2288387 2.2248399
1.7077119 -1.2409602 2.2615998
1.9968586 -1.2250882 2.2065282
2.0053537 -1.255666 2.2114794
1.6783278 -1.1545377 2.2516761
1.7017376 -1.1941874 2.2950928
1.8460736 -1.1039562 2.2667775
1.9727786 -1.1370509 2.206454
2.0499654 -1.1147571 2.2660623
2.1002283 -1.1328449 2.270119
1.5865413 -1.046062 2.2036393
1.6714697 -1.0816597 2.2682905
1.7498593 -1.0738777 2.2543733
1.8304796 -1.0729235 2.2362041
1.9798312 -1.0835516 2.2506123
2.0084825 -1.0923383 2.256485
1.6858718 -0.97406363 2.250869
1.7124405 -0.97139937 2.272917
2.347558 -0.40139294 2.2517285
2.4767594 -0.43480897 2.2083163
2.5056314 -0.40736827 2.2567611
2.6340437 -0.44097722 2.2097962
2.1928287 -0.30954933 2.2502303
2.2188435 -0.33113813 2.2371964
2.3421955 -0.35391486 2.2749629
2.4218667 -0.36625981 2.274338
2.5042195 -0.38447005 2.2393985
2.0958157 -0.26502883 2.203531
2.1971273 -0.2120584 2.2285717
2.2102375 -0.24169439 2.232296
2.3726223 -0.28303254 2.2525373
2.4972899 -0.23992008 2.2158132
2.5232491 -0.26758981 2.2489383
2.1967187 -0.1352386 2.2264893
2.2057288 -0.15106073 2.2286799
2.3155358 -0.10741925 2.2729506
2.4979651 -0.12968083 2.2328796
2.5114753 -0.14358644 2.2452137
2.1941428 -0.083990976 2.2247105
2.2105055 -0.031107284 2.2268069
2.3265717 -0.049978752 2.2054782
2.4968946 -0.089690655 2.2429161
2.5050735 -0.072647743 2.2392516
2.1741719 0.023739051 2.2746873
2.2226312 0.013381292 2.2906368
2.3101552 0.0027527988 2.2962923
2.4189794 0.015452743 2.2528117
2.5689311 0.018450141 2.2906427
1.9936037 0.89726639 2.27911
2.058373 0.87567019 2.2304094
1.846036 0.9504391 2.2021501
1.9856565 0.9736824 2.2640712
2.041903 0.96266365 2.2228088
2.1724257 0.96687812 2.2458529
2.2357934 0.98660183 2.2580149
2.3025062 0.99451637 2.2506747
1.962474 1.003841 2.2368557
2.061857 1.0546703 2.2331824
2.1680975 1.0103827 2.23019
2.2802682 1.0020084 2.2665348
2.3034673 1.0117142 2.2719619
2.0790598 1.1467198 2.2431974
2.1017869 1.1624908 2.286902
2.291012 1.1668913 2.2478905
2.3454518 1.1758777 2.2019489
2.4021003 1.1894877 2.2529078
2.0942113 1.2470937 2.2532942
2.1101203 1.2574621 2.2571151
2.232729 1.289027 2.2313387
2.360837 1.2815366 2.2188101
2.4026992 1.2813247 2.2305081
2.0782654 1.3051609 2.2749829
2.1983078 1.3133187 2.2683749
2.2024348 1.3163891 2.2740846
2.3663042 1.3114746 2.2071519
2.4057894 1.3119323 2.2409568
2.3169205 1.4025513 2.2845004
2.4152846 1.4276659 2.2981629
