# .PCD v0.7 - Point Cloud Data file format
VERSION 0.7
FIELDS x y z
SIZE 4 4 4
TYPE F F F
COUNT 1 1 1
WIDTH 1729
HEIGHT 1
VIEWPOINT 0 0 0 1 0 0 0
POINTS 1729
DATA ascii
1.9319021 3.8251767 2.6399999
1.9317015 3.9051764 2.6399999
1.931501 3.9851763 2.6399999
2.0263364 -1.9346045 2.6399999
2.0261359 -1.8546048 2.6399999
2.0259354 -1.7746049 2.6399999
2.0257349 -1.6946055 2.6399999
2.0255344 -1.6146058 2.6399999
2.0253341 -1.5346059 2.6399999
2.0251336 -1.4546062 2.6399999
2.0249331 -1.3746065 2.6399999
2.0247326 -1.2946066 2.6399999
2.0245321 -1.2146069 2.6399999
2.0243316 -1.1346072 2.6399999
2.0241311 -1.0546073 2.6399999
2.0239305 -0.97460765 2.6399999
2.0237303 -0.89460796 2.6399999
2.0235298 -0.81460816 2.6399999
2.0233293 -0.73460835 2.6399999
2.0231287 -0.65460867 2.6399999
2.0229282 -0.57460898 2.6399999
2.0227277 -0.49460918 2.6399999
2.0225272 -0.41460949 2.6399999
2.0223267 -0.33460969 2.6399999
2.0221262 -0.25461 2.6399999
2.0219259 -0.17461018 2.6399999
2.0217254 -0.094610386 2.6399999
2.0215249 -0.014610698 2.6399999
2.0213244 0.065389045 2.6399999
2.0211239 0.1453888 2.6399999
2.0209234 0.2253886 2.6399999
2.0207229 0.30538827 2.6399999
2.0205224 0.38538802 2.6399999
2.0203221 0.46538776 2.6399999
2.0201216 0.54538757 2.6399999
2.0199211 0.62538731 2.6399999
2.0197206 0.70538706 2.6399999
2.01952 0.7853868 2.6399999
2.0193195 0.86538655 2.6399999
2.019119 0.94538629 2.6399999
2.0189185 1.0253861 2.6399999
2.0187182 1.1053858 2.6399999
2.0185177 1.1853856 2.6399999
2.0183172 1.2653853 2.6399999
2.0181167 1.3453851 2.6399999
2.0179162 1.4253848 2.6399999
2.0177157 1.5053846 2.6399999
2.0175152 1.5853842 2.6399999
2.0173147 1.6653841 2.6399999
2.0171144 1.7453839 2.6399999
2.0169139 1.8253835 2.6399999
2.0167134 1.9053832 2.6399999
2.0165129 1.985383 2.6399999
2.0163124 2.0653827 2.6399999
2.0161119 2.1453826 2.6399999
2.0159113 2.2253823 2.6399999
2.0157108 2.305382 2.6399999
2.0155106 2.3853817 2.6399999
2.01531 2.4653814 2.6399999
2.0151095 2.5453813 2.6399999
2.014909 2.625381 2.6399999
2.0147085 2.7053807 2.6399999
2.014508 2.7853806 2.6399999
2.0143075 2.8653803 2.6399999
2.014107 2.94538 2.6399999
2.0139067 3.0253799 2.6399999
2.0137062 3.1053793 2.6399999
2.0135057 3.185379 2.6399999
2.0133052 3.265379 2.6399999
2.0131047 3.3453786 2.6399999
2.0129042 3.4253783 2.6399999
2.0127037 3.5053782 2.6399999
2.0125031 3.5853779 2.6399999
2.0123029 3.6653776 2.6399999
2.0121024 3.7453775 2.6399999
2.0119019 3.8253772 2.6399999
2.0117013 3.9053769 2.6399999
2.0115008 3.9853768 2.6399999
2.1063361 -1.9344043 2.6399999
2.1061356 -1.8544046 2.6399999
2.1059351 -1.7744046 2.6399999
2.1057348 -1.694405 2.6399999
2.1055343 -1.6144053 2.6399999
2.1053338 -1.5344054 2.6399999
2.1051333 -1.4544057 2.6399999
2.1049328 -1.374406 2.6399999
2.1047323 -1.2944061 2.6399999
2.1045318 -1.2144064 2.6399999
2.1043313 -1.1344067 2.6399999
2.104131 -1.0544068 2.6399999
2.1039305 -0.97440714 2.6399999
2.10373 -0.89440745 2.6399999
2.1035295 -0.81440777 2.6399999
2.1033289 -0.73440796 2.6399999
2.1031284 -0.65440828 2.6399999
2.1029279 -0.57440847 2.6399999
2.1027274 -0.49440867 2.6399999
2.1025271 -0.41440898 2.6399999
2.1023266 -0.33440918 2.6399999
2.1021261 -0.25440949 2.6399999
2.1019256 -0.17440967 2.6399999
2.1017251 -0.094409876 2.6399999
2.1015246 -0.014410308 2.6399999
2.1013241 0.065589555 2.6399999
2.1011236 0.14558925 2.6399999
2.1009233 0.22558905 2.6399999
2.1007228 0.30558878 2.6399999
2.1005223 0.38558853 2.6399999
2.1003218 0.46558827 2.6399999
2.1001213 0.54558802 2.6399999
2.0999207 0.62558776 2.6399999
2.0997202 0.70558751 2.6399999
2.0995197 0.78558725 2.6399999
2.0993192 0.865587 2.6399999
2.0991189 0.9455868 2.6399999
2.0989184 1.0255865 2.6399999
2.0987179 1.1055863 2.6399999
2.0985174 1.185586 2.6399999
2.0983169 1.2655858 2.6399999
2.0981164 1.3455855 2.6399999
2.0979159 1.4255853 2.6399999
2.0977154 1.5055851 2.6399999
2.0975151 1.5855848 2.6399999
2.0973146 1.6655846 2.6399999
2.0971141 1.7455842 2.6399999
2.0969136 1.8255841 2.6399999
2.0967131 1.9055837 2.6399999
2.0965126 1.9855835 2.6399999
2.096312 2.0655832 2.6399999
2.0961115 2.1455832 2.6399999
2.0959113 2.2255826 2.6399999
2.0957108 2.3055825 2.6399999
2.0955102 2.3855822 2.6399999
2.0953097 2.4655819 2.6399999
2.0951092 2.5455818 2.6399999
2.0949087 2.6255815 2.6399999
2.0947082 2.7055812 2.6399999
2.0945077 2.7855811 2.6399999
2.0943074 2.8655808 2.6399999
2.0941069 2.9455805 2.6399999
2.0939064 3.0255802 2.6399999
2.0937059 3.1055799 2.6399999
2.0935054 3.1855795 2.6399999
2.0933049 3.2655795 2.6399999
2.0931044 3.3455791 2.6399999
2.0929039 3.4255788 2.6399999
2.0927036 3.5055788 2.6399999
2.0925031 3.5855784 2.6399999
2.0923026 3.6655781 2.6399999
2.0921021 3.7455781 2.6399999
2.0919015 3.8255777 2.6399999
2.091701 3.9055774 2.6399999
2.0915005 3.9855773 2.6399999
1.8663369 -1.9350055 2.72
1.8661364 -1.8550059 2.72
1.8659359 -1.7750059 2.72
1.8657354 -1.6950063 2.72
1.865535 -1.6150066 2.72
1.8653345 -1.5350066 2.72
1.865134 -1.455007 2.72
1.8649335 -1.3750075 2.72
1.8647331 -1.2950076 2.72
1.8645326 -1.2150079 2.72
1.8643321 -1.1350082 2.72
1.8641316 -1.0550083 2.72
1.8639312 -0.97500867 2.72
1.8637307 -0.89500898 2.72
1.8635302 -0.81500918 2.72
1.8633296 -0.73500937 2.72
1.8631293 -0.65500969 2.72
1.8629287 -0.57500988 2.72
1.8627282 -0.49501008 2.72
1.8625277 -0.41501039 2.72
1.8623273 -0.33501059 2.72
1.8621268 -0.25501102 2.72
1.8619263 -0.1750112 2.72
1.8617258 -0.095011406 2.72
1.8615254 -0.015011718 2.72
1.8613249 0.064988084 2.72
1.8611244 0.14498784 2.72
1.8609239 0.22498764 2.72
1.8607235 0.30498731 2.72
1.860523 0.38498706 2.72
1.8603225 0.4649868 2.72
1.860122 0.54498661 2.72
1.8599216 0.62498635 2.72
1.8597211 0.7049861 2.72
1.8595206 0.78498584 2.72
1.85932 0.86498559 2.72
1.8591197 0.94498533 2.72
1.8589191 1.0249851 2.72
1.8587186 1.1049849 2.72
1.8585181 1.1849846 2.72
1.8583177 1.2649844 2.72
1.8581172 1.3449841 2.72
1.8579167 1.4249839 2.72
1.8577162 1.5049835 2.72
1.8575157 1.5849833 2.72
1.8573153 1.6649832 2.72
1.8571148 1.7449828 2.72
1.8569143 1.8249825 2.72
1.8567138 1.9049823 2.72
1.8565134 1.9849821 2.72
1.8563129 2.0649819 2.72
1.8561124 2.1449816 2.72
1.8559119 2.2249813 2.72
1.8557115 2.304981 2.72
1.855511 2.3849809 2.72
1.8553104 2.4649806 2.72
1.8551099 2.5449803 2.72
1.8549095 2.62498 2.72
1.854709 2.7049799 2.72
1.8545085 2.7849796 2.72
1.854308 2.8649793 2.72
1.8541076 2.944979 2.72
1.8539071 3.0249789 2.72
1.8537066 3.1049783 2.72
1.8535061 3.184978 2.72
1.8533057 3.2649779 2.72
1.8531052 3.3449776 2.72
1.8529047 3.4249773 2.72
1.8527042 3.5049772 2.72
1.8525038 3.5849769 2.72
1.8523033 3.6649766 2.72
1.8521028 3.7449765 2.72
1.8519022 3.8249762 2.72
1.8517019 3.9049759 2.72
1.8515013 3.9849758 2.72
1.9463366 -1.934805 2.72
1.9461362 -1.8548054 2.72
1.9459357 -1.7748054 2.72
1.9457352 -1.6948057 2.72
1.9455347 -1.6148061 2.72
1.9453342 -1.5348064 2.72
1.9451338 -1.4548067 2.72
1.9449333 -1.374807 2.72
1.9447328 -1.2948071 2.72
1.9445323 -1.2148074 2.72
1.9443319 -1.1348077 2.72
1.9441314 -1.0548078 2.72
1.9439309 -0.97480816 2.72
1.9437304 -0.89480847 2.72
1.94353 -0.81480867 2.72
1.9433295 -0.73480886 2.72
1.9431289 -0.65480918 2.72
1.9429284 -0.57480937 2.72
1.942728 -0.49480957 2.72
1.9425275 -0.41481 2.72
1.942327 -0.3348102 2.72
1.9421265 -0.25481051 2.72
1.9419261 -0.17481069 2.72
1.9417256 -0.094810896 2.72
1.9415251 -0.014811208 2.72
1.9413246 0.065188594 2.72
1.9411242 0.14518829 2.72
1.9409237 0.22518809 2.72
1.9407232 0.30518782 2.72
1.9405227 0.38518757 2.72
1.9403223 0.46518731 2.72
1.9401218 0.54518706 2.72
1.9399213 0.6251868 2.72
1.9397207 0.70518655 2.72
1.9395204 0.78518629 2.72
1.9393198 0.86518604 2.72
1.9391193 0.94518584 2.72
1.9389188 1.0251856 2.72
1.9387184 1.1051853 2.72
1.9385179 1.1851851 2.72
1.9383174 1.2651848 2.72
1.9381169 1.3451846 2.72
1.9379165 1.4251844 2.72
1.937716 1.5051841 2.72
1.9375155 1.5851839 2.72
1.937315 1.6651835 2.72
1.9371146 1.7451833 2.72
1.9369141 1.825183 2.72
1.9367136 1.9051828 2.72
1.9365131 1.9851825 2.72
1.9363127 2.0651822 2.72
1.9361122 2.1451821 2.72
1.9359117 2.2251818 2.72
1.9357111 2.3051815 2.72
1.9355108 2.3851814 2.72
1.9353102 2.4651811 2.72
1.9351097 2.5451808 2.72
1.9349092 2.6251805 2.72
1.9347088 2.7051802 2.72
1.9345083 2.7851801 2.72
1.9343078 2.8651798 2.72
1.9341073 2.9451795 2.72
1.9339069 3.0251794 2.72
1.9337064 3.1051788 2.72
1.9335059 3.1851785 2.72
1.9333054 3.2651784 2.72
1.933105 3.3451781 2.72
1.9329045 3.4251778 2.72
1.932704 3.5051777 2.72
1.9325035 3.5851774 2.72
1.9323031 3.6651771 2.72
1.9321026 3.745177 2.72
1.9319021 3.8251767 2.72
1.9317015 3.9051764 2.72
1.931501 3.9851763 2.72
2.0263364 -1.9346045 2.72
2.0261359 -1.8546048 2.72
2.0259354 -1.7746049 2.72
2.0257349 -1.6946055 2.72
2.0255344 -1.6146058 2.72
2.0253341 -1.5346059 2.72
2.0251336 -1.4546062 2.72
2.0249331 -1.3746065 2.72
2.0247326 -1.2946066 2.72
2.0245321 -1.2146069 2.72
2.0243316 -1.1346072 2.72
2.0241311 -1.0546073 2.72
2.0239305 -0.97460765 2.72
2.0237303 -0.89460796 2.72
2.0235298 -0.81460816 2.72
2.0233293 -0.73460835 2.72
2.0231287 -0.65460867 2.72
2.0229282 -0.57460898 2.72
2.0227277 -0.49460918 2.72
2.0225272 -0.41460949 2.72
2.0223267 -0.33460969 2.72
2.0221262 -0.25461 2.72
2.0219259 -0.17461018 2.72
2.0217254 -0.094610386 2.72
2.0215249 -0.014610698 2.72
2.0213244 0.065389045 2.72
2.0211239 0.1453888 2.72
2.0209234 0.2253886 2.72
2.0207229 0.30538827 2.72
2.0205224 0.38538802 2.72
2.0203221 0.46538776 2.72
2.0201216 0.54538757 2.72
2.0199211 0.62538731 2.72
2.0197206 0.70538706 2.72
2.01952 0.7853868 2.72
2.0193195 0.86538655 2.72
2.019119 0.94538629 2.72
2.0189185 1.0253861 2.72
2.0187182 1.1053858 2.72
2.0185177 1.1853856 2.72
2.0183172 1.2653853 2.72
2.0181167 1.3453851 2.72
2.0179162 1.4253848 2.72
2.0177157 1.5053846 2.72
2.0175152 1.5853842 2.72
2.0173147 1.6653841 2.72
2.0171144 1.7453839 2.72
2.0169139 1.8253835 2.72
2.0167134 1.9053832 2.72
2.0165129 1.985383 2.72
2.0163124 2.0653827 2.72
2.0161119 2.1453826 2.72
2.0159113 2.2253823 2.72
2.0157108 2.305382 2.72
2.0155106 2.3853817 2.72
2.01531 2.4653814 2.72
2.0151095 2.5453813 2.72
2.014909 2.625381 2.72
2.0147085 2.7053807 2.72
2.014508 2.7853806 2.72
2.0143075 2.8653803 2.72
2.014107 2.94538 2.72
2.0139067 3.0253799 2.72
2.0137062 3.1053793 2.72
2.0135057 3.185379 2.72
2.0133052 3.265379 2.72
2.0131047 3.3453786 2.72
2.0129042 3.4253783 2.72
2.0127037 3.5053782 2.72
2.0125031 3.5853779 2.72
2.0123029 3.6653776 2.72
2.0121024 3.7453775 2.72
2.0119019 3.8253772 2.72
2.0117013 3.9053769 2.72
2.0115008 3.9853768 2.72
2.1063361 -1.9344043 2.72
2.1061356 -1.8544046 2.72
2.1059351 -1.7744046 2.72
2.1057348 -1.694405 2.72
2.1055343 -1.6144053 2.72
2.1053338 -1.5344054 2.72
2.1051333 -1.4544057 2.72
2.1049328 -1.374406 2.72
2.1047323 -1.2944061 2.72
2.1045318 -1.2144064 2.72
2.1043313 -1.1344067 2.72
2.104131 -1.0544068 2.72
2.1039305 -0.97440714 2.72
2.10373 -0.89440745 2.72
2.1035295 -0.81440777 2.72
2.1033289 -0.73440796 2.72
2.1031284 -0.65440828 2.72
2.1029279 -0.57440847 2.72
2.1027274 -0.49440867 2.72
2.1025271 -0.41440898 2.72
2.1023266 -0.33440918 2.72
2.1021261 -0.25440949 2.72
2.1019256 -0.17440967 2.72
2.1017251 -0.094409876 2.72
2.1015246 -0.014410308 2.72
2.1013241 0.065589555 2.72
2.1011236 0.14558925 2.72
2.1009233 0.22558905 2.72
2.1007228 0.30558878 2.72
2.1005223 0.38558853 2.72
2.1003218 0.46558827 2.72
2.1001213 0.54558802 2.72
2.0999207 0.62558776 2.72
2.0997202 0.70558751 2.72
2.0995197 0.78558725 2.72
2.0993192 0.865587 2.72
2.0991189 0.9455868 2.72
2.0989184 1.0255865 2.72
2.0987179 1.1055863 2.72
2.0985174 1.185586 2.72
2.0983169 1.2655858 2.72
2.0981164 1.3455855 2.72
2.0979159 1.4255853 2.72
2.0977154 1.5055851 2.72
2.0975151 1.5855848 2.72
2.0973146 1.6655846 2.72
2.0971141 1.7455842 2.72
2.0969136 1.8255841 2.72
2.0967131 1.9055837 2.72
2.0965126 1.9855835 2.72
2.096312 2.0655832 2.72
2.0961115 2.1455832 2.72
2.0959113 2.2255826 2.72
2.0957108 2.3055825 2.72
2.0955102 2.3855822 2.72
2.0953097 2.4655819 2.72
2.0951092 2.5455818 2.72
2.0949087 2.6255815 2.72
2.0947082 2.7055812 2.72
2.0945077 2.7855811 2.72
2.0943074 2.8655808 2.72
2.0941069 2.9455805 2.72
2.0939064 3.0255802 2.72
2.0937059 3.1055799 2.72
2.0935054 3.1855795 2.72
2.0933049 3.2655795 2.72
2.0931044 3.3455791 2.72
2.0929039 3.4255788 2.72
2.0927036 3.5055788 2.72
2.0925031 3.5855784 2.72
2.0923026 3.6655781 2.72
2.0921021 3.7455781 2.72
2.0919015 3.8255777 2.72
2.091701 3.9055774 2.72
2.0915005 3.9855773 2.72
1.8663369 -1.9350055 2.8
1.8661364 -1.8550059 2.8
1.8659359 -1.7750059 2.8
1.8657354 -1.6950063 2.8
1.865535 -1.6150066 2.8
1.8653345 -1.5350066 2.8
1.865134 -1.455007 2.8
1.8649335 -1.3750075 2.8
1.8647331 -1.2950076 2.8
1.8645326 -1.2150079 2.8
1.8643321 -1.1350082 2.8
1.8641316 -1.0550083 2.8
1.8639312 -0.97500867 2.8
1.8637307 -0.89500898 2.8
1.8635302 -0.81500918 2.8
1.8633296 -0.73500937 2.8
1.8631293 -0.65500969 2.8
1.8629287 -0.57500988 2.8
1.8627282 -0.49501008 2.8
1.8625277 -0.41501039 2.8
1.8623273 -0.33501059 2.8
1.8621268 -0.25501102 2.8
1.8619263 -0.1750112 2.8
1.8617258 -0.095011406 2.8
1.8615254 -0.015011718 2.8
1.8613249 0.064988084 2.8
1.8611244 0.14498784 2.8
1.8609239 0.22498764 2.8
1.8607235 0.30498731 2.8
1.860523 0.38498706 2.8
1.8603225 0.4649868 2.8
1.860122 0.54498661 2.8
1.8599216 0.62498635 2.8
1.8597211 0.7049861 2.8
1.8595206 0.78498584 2.8
1.85932 0.86498559 2.8
1.8591197 0.94498533 2.8
1.8589191 1.0249851 2.8
1.8587186 1.1049849 2.8
1.8585181 1.1849846 2.8
1.8583177 1.2649844 2.8
1.8581172 1.3449841 2.8
1.8579167 1.4249839 2.8
1.8577162 1.5049835 2.8
1.8575157 1.5849833 2.8
1.8573153 1.6649832 2.8
1.8571148 1.7449828 2.8
1.8569143 1.8249825 2.8
1.8567138 1.9049823 2.8
1.8565134 1.9849821 2.8
1.8563129 2.0649819 2.8
1.8561124 2.1449816 2.8
1.8559119 2.2249813 2.8
1.8557115 2.304981 2.8
1.855511 2.3849809 2.8
1.8553104 2.4649806 2.8
1.8551099 2.5449803 2.8
1.8549095 2.62498 2.8
1.854709 2.7049799 2.8
1.8545085 2.7849796 2.8
1.854308 2.8649793 2.8
1.8541076 2.944979 2.8
1.8539071 3.0249789 2.8
1.8537066 3.1049783 2.8
1.8535061 3.184978 2.8
1.8533057 3.2649779 2.8
1.8531052 3.3449776 2.8
1.8529047 3.4249773 2.8
1.8527042 3.5049772 2.8
1.8525038 3.5849769 2.8
1.8523033 3.6649766 2.8
1.8521028 3.7449765 2.8
1.8519022 3.8249762 2.8
1.8517019 3.9049759 2.8
1.8515013 3.9849758 2.8
1.9463366 -1.934805 2.8
1.9461362 -1.8548054 2.8
1.9459357 -1.7748054 2.8
1.9457352 -1.6948057 2.8
1.9455347 -1.6148061 2.8
1.9453342 -1.5348064 2.8
1.9451338 -1.4548067 2.8
1.9449333 -1.374807 2.8
1.9447328 -1.2948071 2.8
1.9445323 -1.2148074 2.8
1.9443319 -1.1348077 2.8
1.9441314 -1.0548078 2.8
1.9439309 -0.97480816 2.8
1.9437304 -0.89480847 2.8
1.94353 -0.81480867 2.8
1.9433295 -0.73480886 2.8
1.9431289 -0.65480918 2.8
1.9429284 -0.57480937 2.8
1.942728 -0.49480957 2.8
1.9425275 -0.41481 2.8
1.942327 -0.3348102 2.8
1.9421265 -0.25481051 2.8
1.9419261 -0.17481069 2.8
1.9417256 -0.094810896 2.8
1.9415251 -0.014811208 2.8
1.9413246 0.065188594 2.8
1.9411242 0.14518829 2.8
1.9409237 0.22518809 2.8
1.9407232 0.30518782 2.8
1.9405227 0.38518757 2.8
1.9403223 0.46518731 2.8
1.9401218 0.54518706 2.8
1.9399213 0.6251868 2.8
1.9397207 0.70518655 2.8
1.9395204 0.78518629 2.8
1.9393198 0.86518604 2.8
1.9391193 0.94518584 2.8
1.9389188 1.0251856 2.8
1.9387184 1.1051853 2.8
1.9385179 1.1851851 2.8
1.9383174 1.2651848 2.8
1.9381169 1.3451846 2.8
1.9379165 1.4251844 2.8
1.937716 1.5051841 2.8
1.9375155 1.5851839 2.8
1.937315 1.6651835 2.8
1.9371146 1.7451833 2.8
1.9369141 1.825183 2.8
1.9367136 1.9051828 2.8
1.9365131 1.9851825 2.8
1.9363127 2.0651822 2.8
1.9361122 2.1451821 2.8
1.9359117 2.2251818 2.8
1.9357111 2.3051815 2.8
1.9355108 2.3851814 2.8
1.9353102 2.4651811 2.8
1.9351097 2.5451808 2.8
1.9349092 2.6251805 2.8
1.9347088 2.7051802 2.8
1.9345083 2.7851801 2.8
1.9343078 2.8651798 2.8
1.9341073 2.9451795 2.8
1.9339069 3.0251794 2.8
1.9337064 3.1051788 2.8
1.9335059 3.1851785 2.8
1.9333054 3.2651784 2.8
1.933105 3.3451781 2.8
1.9329045 3.4251778 2.8
1.932704 3.5051777 2.8
1.9325035 3.5851774 2.8
1.9323031 3.6651771 2.8
1.9321026 3.745177 2.8
1.9319021 3.8251767 2.8
1.9317015 3.9051764 2.8
1.931501 3.9851763 2.8
2.0263364 -1.9346045 2.8
2.0261359 -1.8546048 2.8
2.0259354 -1.7746049 2.8
2.0257349 -1.6946055 2.8
2.0255344 -1.6146058 2.8
2.0253341 -1.5346059 2.8
2.0251336 -1.4546062 2.8
2.0249331 -1.3746065 2.8
2.0247326 -1.2946066 2.8
2.0245321 -1.2146069 2.8
2.0243316 -1.1346072 2.8
2.0241311 -1.0546073 2.8
2.0239305 -0.97460765 2.8
2.0237303 -0.89460796 2.8
2.0235298 -0.81460816 2.8
2.0233293 -0.73460835 2.8
2.0231287 -0.65460867 2.8
2.0229282 -0.57460898 2.8
2.0227277 -0.49460918 2.8
2.0225272 -0.41460949 2.8
2.0223267 -0.33460969 2.8
2.0221262 -0.25461 2.8
2.0219259 -0.17461018 2.8
2.0217254 -0.094610386 2.8
2.0215249 -0.014610698 2.8
2.0213244 0.065389045 2.8
2.0211239 0.1453888 2.8
2.0209234 0.2253886 2.8
2.0207229 0.30538827 2.8
2.0205224 0.38538802 2.8
2.0203221 0.46538776 2.8
2.0201216 0.54538757 2.8
2.0199211 0.62538731 2.8
2.0197206 0.70538706 2.8
2.01952 0.7853868 2.8
2.0193195 0.86538655 2.8
2.019119 0.94538629 2.8
2.0189185 1.0253861 2.8
2.0187182 1.1053858 2.8
2.0185177 1.1853856 2.8
2.0183172 1.2653853 2.8
2.0181167 1.3453851 2.8
2.0179162 1.4253848 2.8
2.0177157 1.5053846 2.8
2.0175152 1.5853842 2.8
2.0173147 1.6653841 2.8
2.0171144 1.7453839 2.8
2.0169139 1.8253835 2.8
2.0167134 1.9053832 2.8
2.0165129 1.985383 2.8
2.0163124 2.0653827 2.8
2.0161119 2.1453826 2.8
2.0159113 2.2253823 2.8
2.0157108 2.305382 2.8
2.0155106 2.3853817 2.8
2.01531 2.4653814 2.8
2.0151095 2.5453813 2.8
2.014909 2.625381 2.8
2.0147085 2.7053807 2.8
2.014508 2.7853806 2.8
2.0143075 2.8653803 2.8
2.014107 2.94538 2.8
2.0139067 3.0253799 2.8
2.0137062 3.1053793 2.8
2.0135057 3.185379 2.8
2.0133052 3.265379 2.8
2.0131047 3.3453786 2.8
2.0129042 3.4253783 2.8
2.0127037 3.5053782 2.8
2.0125031 3.5853779 2.8
2.0123029 3.6653776 2.8
2.0121024 3.7453775 2.8
2.0119019 3.8253772 2.8
2.0117013 3.9053769 2.8
2.0115008 3.9853768 2.8
2.1063361 -1.9344043 2.8
2.1061356 -1.8544046 2.8
2.1059351 -1.7744046 2.8
2.1057348 -1.694405 2.8
2.1055343 -1.6144053 2.8
2.1053338 -1.5344054 2.8
2.1051333 -1.4544057 2.8
2.1049328 -1.374406 2.8
2.1047323 -1.2944061 2.8
2.1045318 -1.2144064 2.8
2.1043313 -1.1344067 2.8
2.104131 -1.0544068 2.8
2.1039305 -0.97440714 2.8
2.10373 -0.89440745 2.8
2.1035295 -0.81440777 2.8
2.1033289 -0.73440796 2.8
2.1031284 -0.65440828 2.8
2.1029279 -0.57440847 2.8
2.1027274 -0.49440867 2.8
2.1025271 -0.41440898 2.8
2.1023266 -0.33440918 2.8
2.1021261 -0.25440949 2.8
2.1019256 -0.17440967 2.8
2.1017251 -0.094409876 2.8
2.1015246 -0.014410308 2.8
2.1013241 0.065589555 2.8
2.1011236 0.14558925 2.8
2.1009233 0.22558905 2.8
2.1007228 0.30558878 2.8
2.1005223 0.38558853 2.8
2.1003218 0.46558827 2.8
2.1001213 0.54558802 2.8
2.0999207 0.62558776 2.8
2.0997202 0.70558751 2.8
2.0995197 0.78558725 2.8
2.0993192 0.865587 2.8
2.0991189 0.9455868 2.8
2.0989184 1.0255865 2.8
2.0987179 1.1055863 2.8
2.0985174 1.185586 2.8
2.0983169 1.2655858 2.8
2.0981164 1.3455855 2.8
2.0979159 1.4255853 2.8
2.0977154 1.5055851 2.8
2.0975151 1.5855848 2.8
2.0973146 1.6655846 2.8
2.0971141 1.7455842 2.8
2.0969136 1.8255841 2.8
2.0967131 1.9055837 2.8
2.0965126 1.9855835 2.8
2.096312 2.0655832 2.8
2.0961115 2.1455832 2.8
2.0959113 2.2255826 2.8
2.0957108 2.3055825 2.8
2.0955102 2.3855822 2.8
2.0953097 2.4655819 2.8
2.0951092 2.5455818 2.8
2.0949087 2.6255815 2.8
2.0947082 2.7055812 2.8
2.0945077 2.7855811 2.8
2.0943074 2.8655808 2.8
2.0941069 2.9455805 2.8
2.0939064 3.0255802 2.8
2.0937059 3.1055799 2.8
2.0935054 3.1855795 2.8
2.0933049 3.2655795 2.8
2.0931044 3.3455791 2.8
2.0929039 3.4255788 2.8
2.0927036 3.5055788 2.8
2.0925031 3.5855784 2.8
2.0923026 3.6655781 2.8
2.0921021 3.7455781 2.8
2.0919015 3.8255777 2.8
2.091701 3.9055774 2.8
2.0915005 3.9855773 2.8
1.8663369 -1.9350055 2.8799999
1.8661364 -1.8550059 2.8799999
1.8659359 -1.7750059 2.8799999
1.8657354 -1.6950063 2.8799999
1.865535 -1.6150066 2.8799999
1.8653345 -1.5350066 2.8799999
1.865134 -1.455007 2.8799999
1.8649335 -1.3750075 2.8799999
1.8647331 -1.2950076 2.8799999
1.8645326 -1.2150079 2.8799999
1.8643321 -1.1350082 2.8799999
1.8641316 -1.0550083 2.8799999
1.8639312 -0.97500867 2.8799999
1.8637307 -0.89500898 2.8799999
1.8635302 -0.81500918 2.8799999
1.8633296 -0.73500937 2.8799999
1.8631293 -0.65500969 2.8799999
1.8629287 -0.57500988 2.8799999
1.8627282 -0.49501008 2.8799999
1.8625277 -0.41501039 2.8799999
1.8623273 -0.33501059 2.8799999
1.8621268 -0.25501102 2.8799999
1.8619263 -0.1750112 2.8799999
1.8617258 -0.095011406 2.8799999
1.8615254 -0.015011718 2.8799999
1.8613249 0.064988084 2.8799999
1.8611244 0.14498784 2.8799999
1.8609239 0.22498764 2.8799999
1.8607235 0.30498731 2.8799999
1.860523 0.38498706 2.8799999
1.8603225 0.4649868 2.8799999
1.860122 0.54498661 2.8799999
1.8599216 0.62498635 2.8799999
1.8597211 0.7049861 2.8799999
1.8595206 0.78498584 2.8799999
1.85932 0.86498559 2.8799999
1.8591197 0.94498533 2.8799999
1.8589191 1.0249851 2.8799999
1.8587186 1.1049849 2.8799999
1.8585181 1.1849846 2.8799999
1.8583177 1.2649844 2.8799999
1.8581172 1.3449841 2.8799999
1.8579167 1.4249839 2.8799999
1.8577162 1.5049835 2.8799999
1.8575157 1.5849833 2.8799999
1.8573153 1.6649832 2.8799999
1.8571148 1.7449828 2.8799999
1.8569143 1.8249825 2.8799999
1.8567138 1.9049823 2.8799999
1.8565134 1.9849821 2.8799999
1.8563129 2.0649819 2.8799999
1.8561124 2.1449816 2.8799999
1.8559119 2.2249813 2.8799999
1.8557115 2.304981 2.8799999
1.855511 2.3849809 2.8799999
1.8553104 2.4649806 2.8799999
1.8551099 2.5449803 2.8799999
1.8549095 2.62498 2.8799999
1.854709 2.7049799 2.8799999
1.8545085 2.7849796 2.8799999
1.854308 2.8649793 2.8799999
1.8541076 2.944979 2.8799999
1.8539071 3.0249789 2.8799999
1.8537066 3.1049783 2.8799999
1.8535061 3.184978 2.8799999
1.8533057 3.2649779 2.8799999
1.8531052 3.3449776 2.8799999
1.8529047 3.4249773 2.8799999
1.8527042 3.5049772 2.8799999
1.8525038 3.5849769 2.8799999
1.8523033 3.6649766 2.8799999
1.8521028 3.7449765 2.8799999
1.8519022 3.8249762 2.8799999
1.8517019 3.9049759 2.8799999
1.8515013 3.9849758 2.8799999
1.9463366 -1.934805 2.8799999
1.9461362 -1.8548054 2.8799999
1.9459357 -1.7748054 2.8799999
1.9457352 -1.6948057 2.8799999
1.9455347 -1.6148061 2.8799999
1.9453342 -1.5348064 2.8799999
1.9451338 -1.4548067 2.8799999
1.9449333 -1.374807 2.8799999
1.9447328 -1.2948071 2.8799999
1.9445323 -1.2148074 2.8799999
1.9443319 -1.1348077 2.8799999
1.9441314 -1.0548078 2.8799999
1.9439309 -0.97480816 2.8799999
1.9437304 -0.89480847 2.8799999
1.94353 -0.81480867 2.8799999
1.9433295 -0.73480886 2.8799999
1.9431289 -0.65480918 2.8799999
1.9429284 -0.57480937 2.8799999
1.942728 -0.49480957 2.8799999
1.9425275 -0.41481 2.8799999
1.942327 -0.3348102 2.8799999
1.9421265 -0.25481051 2.8799999
1.9419261 -0.17481069 2.8799999
1.9417256 -0.094810896 2.8799999
1.9415251 -0.014811208 2.8799999
1.9413246 0.065188594 2.8799999
1.9411242 0.14518829 2.8799999
1.9409237 0.22518809 2.8799999
1.9407232 0.30518782 2.8799999
1.9405227 0.38518757 2.8799999
1.9403223 0.46518731 2.8799999
1.9401218 0.54518706 2.8799999
1.9399213 0.6251868 2.8799999
1.9397207 0.70518655 2.8799999
1.9395204 0.78518629 2.8799999
1.9393198 0.86518604 2.8799999
1.9391193 0.94518584 2.8799999
1.9389188 1.0251856 2.8799999
1.9387184 1.1051853 2.8799999
1.9385179 1.1851851 2.8799999
1.9383174 1.2651848 2.8799999
1.9381169 1.3451846 2.8799999
1.9379165 1.4251844 2.8799999
1.937716 1.5051841 2.8799999
1.9375155 1.5851839 2.8799999
1.937315 1.6651835 2.8799999
1.9371146 1.7451833 2.8799999
1.9369141 1.825183 2.8799999
1.9367136 1.9051828 2.8799999
1.9365131 1.9851825 2.8799999
1.9363127 2.0651822 2.8799999
1.9361122 2.1451821 2.8799999
1.9359117 2.2251818 2.8799999
1.9357111 2.3051815 2.8799999
1.9355108 2.3851814 2.8799999
1.9353102 2.4651811 2.8799999
1.9351097 2.5451808 2.8799999
1.9349092 2.6251805 2.8799999
1.9347088 2.7051802 2.8799999
1.9345083 2.7851801 2.8799999
1.9343078 2.8651798 2.8799999
1.9341073 2.9451795 2.8799999
1.9339069 3.0251794 2.8799999
1.9337064 3.1051788 2.8799999
1.9335059 3.1851785 2.8799999
1.9333054 3.2651784 2.8799999
1.933105 3.3451781 2.8799999
1.9329045 3.4251778 2.8799999
1.932704 3.5051777 2.8799999
1.9325035 3.5851774 2.8799999
1.9323031 3.6651771 2.8799999
1.9321026 3.745177 2.8799999
1.9319021 3.8251767 2.8799999
1.9317015 3.9051764 2.8799999
1.931501 3.9851763 2.8799999
2.0263364 -1.9346045 2.8799999
2.0261359 -1.8546048 2.8799999
2.0259354 -1.7746049 2.8799999
2.0257349 -1.6946055 2.8799999
2.0255344 -1.6146058 2.8799999
2.0253341 -1.5346059 2.8799999
2.0251336 -1.4546062 2.8799999
2.0249331 -1.3746065 2.8799999
2.0247326 -1.2946066 2.8799999
2.0245321 -1.2146069 2.8799999
2.0243316 -1.1346072 2.8799999
2.0241311 -1.0546073 2.8799999
2.0239305 -0.97460765 2.8799999
2.0237303 -0.89460796 2.8799999
2.0235298 -0.81460816 2.8799999
2.0233293 -0.73460835 2.8799999
2.0231287 -0.65460867 2.8799999
2.0229282 -0.57460898 2.8799999
2.0227277 -0.49460918 2.8799999
2.0225272 -0.41460949 2.8799999
2.0223267 -0.33460969 2.8799999
2.0221262 -0.25461 2.8799999
2.0219259 -0.17461018 2.8799999
2.0217254 -0.094610386 2.8799999
2.0215249 -0.014610698 2.8799999
2.0213244 0.065389045 2.8799999
2.0211239 0.1453888 2.8799999
2.0209234 0.2253886 2.8799999
2.0207229 0.30538827 2.8799999
2.0205224 0.38538802 2.8799999
2.0203221 0.46538776 2.8799999
2.0201216 0.54538757 2.8799999
2.0199211 0.62538731 2.8799999
2.0197206 0.70538706 2.8799999
2.01952 0.7853868 2.8799999
2.0193195 0.86538655 2.8799999
2.019119 0.94538629 2.8799999
2.0189185 1.0253861 2.8799999
2.0187182 1.1053858 2.8799999
2.0185177 1.1853856 2.8799999
2.0183172 1.2653853 2.8799999
2.0181167 1.3453851 2.8799999
2.0179162 1.4253848 2.8799999
2.0177157 1.5053846 2.8799999
2.0175152 1.5853842 2.8799999
2.0173147 1.6653841 2.8799999
2.0171144 1.7453839 2.8799999
2.0169139 1.8253835 2.8799999
2.0167134 1.9053832 2.8799999
2.0165129 1.985383 2.8799999
2.0163124 2.0653827 2.8799999
2.0161119 2.1453826 2.8799999
2.0159113 2.2253823 2.8799999
2.0157108 2.305382 2.8799999
2.0155106 2.3853817 2.8799999
2.01531 2.4653814 2.8799999
2.0151095 2.5453813 2.8799999
2.014909 2.625381 2.8799999
2.0147085 2.7053807 2.8799999
2.014508 2.7853806 2.8799999
2.0143075 2.8653803 2.8799999
2.014107 2.94538 2.8799999
2.0139067 3.0253799 2.8799999
2.0137062 3.1053793 2.8799999
2.0135057 3.185379 2.8799999
2.0133052 3.265379 2.8799999
2.0131047 3.3453786 2.8799999
2.0129042 3.4253783 2.8799999
2.0127037 3.5053782 2.8799999
2.0125031 3.5853779 2.8799999
2.0123029 3.6653776 2.8799999
2.0121024 3.7453775 2.8799999
2.0119019 3.8253772 2.8799999
2.0117013 3.9053769 2.8799999
2.0115008 3.9853768 2.8799999
2.1063361 -1.9344043 2.8799999
2.1061356 -1.8544046 2.8799999
2.1059351 -1.7744046 2.8799999
2.1057348 -1.694405 2.8799999
2.1055343 -1.6144053 2.8799999
2.1053338 -1.5344054 2.8799999
2.1051333 -1.4544057 2.8799999
2.1049328 -1.374406 2.8799999
2.1047323 -1.2944061 2.8799999
2.1045318 -1.2144064 2.8799999
2.1043313 -1.1344067 2.8799999
2.104131 -1.0544068 2.8799999
2.1039305 -0.97440714 2.8799999
2.10373 -0.89440745 2.8799999
2.1035295 -0.81440777 2.8799999
2.1033289 -0.73440796 2.8799999
2.1031284 -0.65440828 2.8799999
2.1029279 -0.57440847 2.8799999
2.1027274 -0.49440867 2.8799999
2.1025271 -0.41440898 2.8799999
2.1023266 -0.33440918 2.8799999
2.1021261 -0.25440949 2.8799999
2.1019256 -0.17440967 2.8799999
2.1017251 -0.094409876 2.8799999
2.1015246 -0.014410308 2.8799999
2.1013241 0.065589555 2.8799999
2.1011236 0.14558925 2.8799999
2.1009233 0.22558905 2.8799999
2.1007228 0.30558878 2.8799999
2.1005223 0.38558853 2.8799999
2.1003218 0.46558827 2.8799999
2.1001213 0.54558802 2.8799999
2.0999207 0.62558776 2.8799999
2.0997202 0.70558751 2.8799999
2.0995197 0.78558725 2.8799999
2.0993192 0.865587 2.8799999
2.0991189 0.9455868 2.8799999
2.0989184 1.0255865 2.8799999
2.0987179 1.1055863 2.8799999
2.0985174 1.185586 2.8799999
2.0983169 1.2655858 2.8799999
2.0981164 1.3455855 2.8799999
2.0979159 1.4255853 2.8799999
2.0977154 1.5055851 2.8799999
2.0975151 1.5855848 2.8799999
2.0973146 1.6655846 2.8799999
2.0971141 1.7455842 2.8799999
2.0969136 1.8255841 2.8799999
2.0967131 1.9055837 2.8799999
2.0965126 1.9855835 2.8799999
2.096312 2.0655832 2.8799999
2.0961115 2.1455832 2.8799999
2.0959113 2.2255826 2.8799999
2.0957108 2.3055825 2.8799999
2.0955102 2.3855822 2.8799999
2.0953097 2.4655819 2.8799999
2.0951092 2.5455818 2.8799999
2.0949087 2.6255815 2.8799999
2.0947082 2.7055812 2.8799999
2.0945077 2.7855811 2.8799999
2.0943074 2.8655808 2.8799999
2.0941069 2.9455805 2.8799999
2.0939064 3.0255802 2.8799999
2.0937059 3.1055799 2.8799999
2.0935054 3.1855795 2.8799999
2.0933049 3.2655795 2.8799999
2.0931044 3.3455791 2.8799999
2.0929039 3.4255788 2.8799999
2.0927036 3.5055788 2.8799999
2.0925031 3.5855784 2.8799999
2.0923026 3.6655781 2.8799999
2.0921021 3.7455781 2.8799999
2.0919015 3.8255777 2.8799999
2.091701 3.9055774 2.8799999
2.0915005 3.9855773 2.8799999
1.8663369 -1.9350055 2.96
1.8661364 -1.8550059 2.96
1.8659359 -1.7750059 2.96
1.8657354 -1.6950063 2.96
1.865535 -1.6150066 2.96
1.8653345 -1.5350066 2.96
1.865134 -1.455007 2.96
1.8649335 -1.3750075 2.96
1.8647331 -1.2950076 2.96
1.8645326 -1.2150079 2.96
1.8643321 -1.1350082 2.96
1.8641316 -1.0550083 2.96
1.8639312 -0.97500867 2.96
1.8637307 -0.89500898 2.96
1.8635302 -0.81500918 2.96
1.8633296 -0.73500937 2.96
1.8631293 -0.65500969 2.96
1.8629287 -0.57500988 2.96
1.8627282 -0.49501008 2.96
1.8625277 -0.41501039 2.96
1.8623273 -0.33501059 2.96
1.8621268 -0.25501102 2.96
1.8619263 -0.1750112 2.96
1.8617258 -0.095011406 2.96
1.8615254 -0.015011718 2.96
1.8613249 0.064988084 2.96
1.8611244 0.14498784 2.96
1.8609239 0.22498764 2.96
1.8607235 0.30498731 2.96
1.860523 0.38498706 2.96
1.8603225 0.4649868 2.96
1.860122 0.54498661 2.96
1.8599216 0.62498635 2.96
1.8597211 0.7049861 2.96
1.8595206 0.78498584 2.96
1.85932 0.86498559 2.96
1.8591197 0.94498533 2.96
1.8589191 1.0249851 2.96
1.8587186 1.1049849 2.96
1.8585181 1.1849846 2.96
1.8583177 1.2649844 2.96
1.8581172 1.3449841 2.96
1.8579167 1.4249839 2.96
1.8577162 1.5049835 2.96
1.8575157 1.5849833 2.96
1.8573153 1.6649832 2.96
1.8571148 1.7449828 2.96
1.8569143 1.8249825 2.96
1.8567138 1.9049823 2.96
1.8565134 1.9849821 2.96
1.8563129 2.0649819 2.96
1.8561124 2.1449816 2.96
1.8559119 2.2249813 2.96
1.8557115 2.304981 2.96
1.855511 2.3849809 2.96
1.8553104 2.4649806 2.96
1.8551099 2.5449803 2.96
1.8549095 2.62498 2.96
1.854709 2.7049799 2.96
1.8545085 2.7849796 2.96
1.854308 2.8649793 2.96
1.8541076 2.944979 2.96
1.8539071 3.0249789 2.96
1.8537066 3.1049783 2.96
1.8535061 3.184978 2.96
1.8533057 3.2649779 2.96
1.8531052 3.3449776 2.96
1.8529047 3.4249773 2.96
1.8527042 3.5049772 2.96
1.8525038 3.5849769 2.96
1.8523033 3.6649766 2.96
1.8521028 3.7449765 2.96
1.8519022 3.8249762 2.96
1.8517019 3.9049759 2.96
1.8515013 3.9849758 2.96
1.9463366 -1.934805 2.96
1.9461362 -1.8548054 2.96
1.9459357 -1.7748054 2.96
1.9457352 -1.6948057 2.96
1.9455347 -1.6148061 2.96
1.9453342 -1.5348064 2.96
1.9451338 -1.4548067 2.96
1.9449333 -1.374807 2.96
1.9447328 -1.2948071 2.96
1.9445323 -1.2148074 2.96
1.9443319 -1.1348077 2.96
1.9441314 -1.0548078 2.96
1.9439309 -0.97480816 2.96
1.9437304 -0.89480847 2.96
1.94353 -0.81480867 2.96
1.9433295 -0.73480886 2.96
1.9431289 -0.65480918 2.96
1.9429284 -0.57480937 2.96
1.942728 -0.49480957 2.96
1.9425275 -0.41481 2.96
1.942327 -0.3348102 2.96
1.9421265 -0.25481051 2.96
1.9419261 -0.17481069 2.96
1.9417256 -0.094810896 2.96
1.9415251 -0.014811208 2.96
1.9413246 0.065188594 2.96
1.9411242 0.14518829 2.96
1.9409237 0.22518809 2.96
1.9407232 0.30518782 2.96
1.9405227 0.38518757 2.96
1.9403223 0.46518731 2.96
1.9401218 0.54518706 2.96
1.9399213 0.6251868 2.96
1.9397207 0.70518655 2.96
1.9395204 0.78518629 2.96
1.9393198 0.86518604 2.96
1.9391193 0.94518584 2.96
1.9389188 1.0251856 2.96
1.9387184 1.1051853 2.96
1.9385179 1.1851851 2.96
1.9383174 1.2651848 2.96
1.9381169 1.3451846 2.96
1.9379165 1.4251844 2.96
1.937716 1.5051841 2.96
1.9375155 1.5851839 2.96
1.937315 1.6651835 2.96
1.9371146 1.7451833 2.96
1.9369141 1.825183 2.96
1.9367136 1.9051828 2.96
1.9365131 1.9851825 2.96
1.9363127 2.0651822 2.96
1.9361122 2.1451821 2.96
1.9359117 2.2251818 2.96
1.9357111 2.3051815 2.96
1.9355108 2.3851814 2.96
1.9353102 2.4651811 2.96
1.9351097 2.5451808 2.96
1.9349092 2.6251805 2.96
1.9347088 2.7051802 2.96
1.9345083 2.7851801 2.96
1.9343078 2.8651798 2.96
1.9341073 2.9451795 2.96
1.9339069 3.0251794 2.96
1.9337064 3.1051788 2.96
1.9335059 3.1851785 2.96
1.9333054 3.2651784 2.96
1.933105 3.3451781 2.96
1.9329045 3.4251778 2.96
1.932704 3.5051777 2.96
1.9325035 3.5851774 2.96
1.9323031 3.6651771 2.96
1.9321026 3.745177 2.96
1.9319021 3.8251767 2.96
1.9317015 3.9051764 2.96
1.931501 3.9851763 2.96
2.0263364 -1.9346045 2.96
2.0261359 -1.8546048 2.96
2.0259354 -1.7746049 2.96
2.0257349 -1.6946055 2.96
2.0255344 -1.6146058 2.96
2.0253341 -1.5346059 2.96
2.0251336 -1.4546062 2.96
2.0249331 -1.3746065 2.96
2.0247326 -1.2946066 2.96
2.0245321 -1.2146069 2.96
2.0243316 -1.1346072 2.96
2.0241311 -1.0546073 2.96
2.0239305 -0.97460765 2.96
2.0237303 -0.89460796 2.96
2.0235298 -0.81460816 2.96
2.0233293 -0.73460835 2.96
2.0231287 -0.65460867 2.96
2.0229282 -0.57460898 2.96
2.0227277 -0.49460918 2.96
2.0225272 -0.41460949 2.96
2.0223267 -0.33460969 2.96
2.0221262 -0.25461 2.96
2.0219259 -0.17461018 2.96
2.0217254 -0.094610386 2.96
2.0215249 -0.014610698 2.96
2.0213244 0.065389045 2.96
2.0211239 0.1453888 2.96
2.0209234 0.2253886 2.96
2.0207229 0.30538827 2.96
2.0205224 0.38538802 2.96
2.0203221 0.46538776 2.96
2.0201216 0.54538757 2.96
2.0199211 0.62538731 2.96
2.0197206 0.70538706 2.96
2.01952 0.7853868 2.96
2.0193195 0.86538655 2.96
2.019119 0.94538629 2.96
2.0189185 1.0253861 2.96
2.0187182 1.1053858 2.96
2.0185177 1.1853856 2.96
2.0183172 1.2653853 2.96
2.0181167 1.3453851 2.96
2.0179162 1.4253848 2.96
2.0177157 1.5053846 2.96
2.0175152 1.5853842 2.96
2.0173147 1.6653841 2.96
2.0171144 1.7453839 2.96
2.0169139 1.8253835 2.96
2.0167134 1.9053832 2.96
2.0165129 1.985383 2.96
2.0163124 2.0653827 2.96
2.0161119 2.1453826 2.96
2.0159113 2.2253823 2.96
2.0157108 2.305382 2.96
2.0155106 2.3853817 2.96
2.01531 2.4653814 2.96
2.0151095 2.5453813 2.96
2.014909 2.625381 2.96
2.0147085 2.7053807 2.96
2.014508 2.7853806 2.96
2.0143075 2.8653803 2.96
2.014107 2.94538 2.96
2.0139067 3.0253799 2.96
2.0137062 3.1053793 2.96
2.0135057 3.185379 2.96
2.0133052 3.265379 2.96
2.0131047 3.3453786 2.96
2.0129042 3.4253783 2.96
2.0127037 3.5053782 2.96
2.0125031 3.5853779 2.96
2.0123029 3.6653776 2.96
2.0121024 3.7453775 2.96
2.0119019 3.8253772 2.96
2.0117013 3.9053769 2.96
2.0115008 3.9853768 2.96
2.1063361 -1.9344043 2.96
2.1061356 -1.8544046 2.96
2.1059351 -1.7744046 2.96
2.1057348 -1.694405 2.96
2.1055343 -1.6144053 2.96
2.1053338 -1.5344054 2.96
2.1051333 -1.4544057 2.96
2.1049328 -1.374406 2.96
2.1047323 -1.2944061 2.96
2.1045318 -1.2144064 2.96
2.1043313 -1.1344067 2.96
2.104131 -1.0544068 2.96
2.1039305 -0.97440714 2.96
2.10373 -0.89440745 2.96
2.1035295 -0.81440777 2.96
2.1033289 -0.73440796 2.96
2.1031284 -0.65440828 2.96
2.1029279 -0.57440847 2.96
2.1027274 -0.49440867 2.96
2.1025271 -0.41440898 2.96
2.1023266 -0.33440918 2.96
2.1021261 -0.25440949 2.96
2.1019256 -0.17440967 2.96
2.1017251 -0.094409876 2.96
2.1015246 -0.014410308 2.96
2.1013241 0.065589555 2.96
2.1011236 0.14558925 2.96
2.1009233 0.22558905 2.96
2.1007228 0.30558878 2.96
2.1005223 0.38558853 2.96
2.1003218 0.46558827 2.96
2.1001213 0.54558802 2.96
2.0999207 0.62558776 2.96
2.0997202 0.70558751 2.96
2.0995197 0.78558725 2.96
2.0993192 0.865587 2.96
2.0991189 0.9455868 2.96
2.0989184 1.0255865 2.96
2.0987179 1.1055863 2.96
2.0985174 1.185586 2.96
2.0983169 1.2655858 2.96
2.0981164 1.3455855 2.96
2.0979159 1.4255853 2.96
2.0977154 1.5055851 2.96
2.0975151 1.5855848 2.96
2.0973146 1.6655846 2.96
2.0971141 1.7455842 2.96
2.0969136 1.8255841 2.96
2.0967131 1.9055837 2.96
2.0965126 1.9855835 2.96
2.096312 2.0655832 2.96
2.0961115 2.1455832 2.96
2.0959113 2.2255826 2.96
2.0957108 2.3055825 2.96
2.0955102 2.3855822 2.96
2.0953097 2.4655819 2.96
2.0951092 2.5455818 2.96
2.0949087 2.6255815 2.96
2.0947082 2.7055812 2.96
2.0945077 2.7855811 2.96
2.0943074 2.8655808 2.96
2.0941069 2.9455805 2.96
2.0939064 3.0255802 2.96
2.0937059 3.1055799 2.96
2.0935054 3.1855795 2.96
2.0933049 3.2655795 2.96
2.0931044 3.3455791 2.96
2.0929039 3.4255788 2.96
2.0927036 3.5055788 2.96
2.0925031 3.5855784 2.96
2.0923026 3.6655781 2.96
2.0921021 3.7455781 2.96
2.0919015 3.8255777 2.96
2.091701 3.9055774 2.96
2.0915005 3.9855773 2.96
1.9681675 0.99190462 0.99940538
1.9878731 0.4921962 1.0967238
2.0064065 0.48766315 1.0914843
1.9833187 0.50716019 1.0920231
2.002676 0.5150044 1.0937966
1.9812961 0.66189259 1.0834315
2.0052619 0.62237638 1.0727438
1.982236 0.76086354 1.0786703
2.0077426 0.72462726 1.0607642
1.9806561 0.86779934 1.0806544
1.9831779 0.97906214 1.0763184
1.9632233 1.0419147 1.0710131
1.9713683 1.1311331 1.074466
1.9570684 1.278515 1.0653133
1.9558108 1.3450352 1.0596696
1.9566247 1.4716566 1.0563469
1.9679961 1.5162475 1.0868647
1.9923611 0.49139321 1.1843115
2.0050931 0.49562788 1.1050781
1.995384 0.50512183 1.1463867
2.0114198 0.52255732 1.1314201
1.9846058 0.73235297 1.1689324
1.9711926 0.89500403 1.124198
1.9708986 0.97069812 1.1100887
1.9489322 1.4959778 1.1452852
1.9636545 1.5122944 1.1854436
1.9976172 0.48341864 1.2559036
2.0067103 0.48595351 1.2555109
1.9949898 0.50621033 1.2160652
2.005888 0.50901318 1.2300444
1.9571441 1.4944702 1.2724595
1.9752151 1.5223131 1.2918431
2.0040429 1.5816933 1.2959417
1.9922736 0.49012995 1.391504
2.0054164 0.48897773 1.3778555
1.9951987 0.50510466 1.3572097
2.0152686 0.50584209 1.3813328
1.9542122 1.4987702 1.3615859
1.9766221 1.5311712 1.311636
2.0104122 1.5839964 1.3907194
2.0355573 1.6046081 1.3003018
1.9946954 0.49958038 1.4349357
2.0024757 0.49843499 1.4342101
1.9969804 0.50819457 1.4340599
2.005198 0.50603473 1.4320753
1.9648073 1.4907334 1.4153366
1.9757829 1.5313276 1.4522057
2.0051832 1.5501497 1.4905052
2.0400338 1.6056368 1.4790109
1.9891984 0.4996174 1.5137289
2.0031085 0.497713 1.5825093
1.9944915 0.50430965 1.5377787
2.0094302 0.51179302 1.5720806
2.0856054 0.62017834 1.5574554
1.9694226 1.4949987 1.5529722
1.9907902 1.5403934 1.5864584
2.0024636 1.5473332 1.5835308
2.1013572 1.652993 1.5605092
1.9930875 0.49022317 1.6593168
2.0043435 0.49957651 1.6620108
1.9959863 0.51040173 1.662997
2.01055 0.51036704 1.6610719
1.9507837 1.4926412 1.6890833
1.9877846 1.5377545 1.6777046
2.001842 1.5478847 1.6742928
2.0415211 1.6049305 1.6654389
2.1099463 1.6532496 1.6685905
1.9854443 0.49901333 1.7392689
2.0092273 0.49876237 1.750995
1.9971194 0.50403225 1.7375771
2.0117984 0.50964844 1.7359223
2.1352048 0.56735247 1.7582263
2.0970511 0.6062426 1.74347
1.9768281 1.4642923 1.7859147
1.995724 1.5445607 1.7664912
2.0044484 1.5507203 1.7653085
2.1129842 1.5568955 1.731895
1.9636717 1.6112118 1.7985961
2.0514646 1.6102731 1.7593514
2.1585922 1.6969852 1.7506446
1.9947357 0.48989654 1.8569318
2.0068374 0.49742791 1.8747368
1.9925944 0.51861352 1.8558533
2.0168076 0.51810712 1.8466047
2.1227353 0.5647763 1.8011187
1.9824491 1.492612 1.837814
1.9798799 1.5344039 1.8571467
2.0008113 1.5470874 1.8558673
1.9233053 1.6266609 1.808913
2.0827217 1.6181737 1.8549926
1.9951968 0.49442145 1.9405636
2.0097489 0.49845427 1.9554279
1.9944828 0.52086973 1.9577349
2.015986 0.52063978 1.9575599
1.9762602 1.4937778 1.916796
2.06896 1.4735506 1.9714661
1.9886841 1.5382762 1.9455776
2.0035431 1.556108 1.9449626
2.0494268 1.6081313 1.9443139
1.9976783 0.49519914 2.0983286
2.0016403 0.49935839 2.0284915
1.99523 0.51583946 2.0306447
2.0176864 0.52554965 2.0314023
1.9991813 0.63056034 2.0983093
2.0075629 0.66611421 2.0970848
1.997858 0.76179373 2.0995407
2.0056274 0.75580412 2.0926881
1.9966257 0.87534153 2.0889158
2.0060425 0.83118612 2.0883679
1.998252 0.96729994 2.0902288
2.0027511 0.96511012 2.0900505
1.9960389 1.0426087 2.0879967
2.0049717 1.0578753 2.0891712
1.9960788 1.1620785 2.0900788
2.0034573 1.1555911 2.0914621
1.9953425 1.271008 2.0861683
2.0036013 1.2475172 2.0933204
1.9898952 1.3339859 2.0859227
2.0024772 1.3445876 2.0942333
1.9877412 1.4398215 2.0898192
2.0048883 1.4405491 2.0937562
1.9914032 1.5453269 2.0345452
2.0018213 1.5537943 2.0344987
2.0413852 1.6083139 2.0374873
1.9949331 0.49684361 2.1072676
2.004683 0.49535406 2.1049252
1.9952834 0.56688565 2.1046374
2.0068457 0.57252771 2.1052487
1.8957242 0.65996319 2.1344059
1.9980723 0.64248109 2.1055884
2.0072579 0.65397471 2.1061778
1.9963838 0.74271166 2.1065049
2.0067725 0.73643625 2.1071982
1.9976249 0.83101785 2.1052916
2.0059831 0.82210827 2.1041689
1.9959788 0.96400553 2.1022584
2.01754 0.93741679 2.1019044
1.9918787 1.0280049 2.1019826
2.0052559 1.0428061 2.1021113
1.9939916 1.1224318 2.1023378
2.0032561 1.1422298 2.10146
1.9956915 1.25774 2.1020465
2.0034146 1.2447817 2.1010988
1.9918325 1.3571453 2.1038461
2.0029192 1.3356256 2.1018777
1.9943616 1.4680271 2.1024935
2.0110426 1.4266866 2.1068316
1.9781874 1.5223594 2.1007578
2.0137076 1.529001 2.112349
1.9681675 0.99190462 0.99940538
1.9878731 0.4921962 1.0967238
2.0064065 0.48766315 1.0914843
1.9833187 0.50716019 1.0920231
2.002676 0.5150044 1.0937966
1.9812961 0.66189259 1.0834315
2.0052619 0.62237638 1.0727438
1.982236 0.76086354 1.0786703
2.0077426 0.72462726 1.0607642
1.9806561 0.86779934 1.0806544
1.9831779 0.97906214 1.0763184
1.9632233 1.0419147 1.0710131
1.9713683 1.1311331 1.074466
1.9570684 1.278515 1.0653133
1.9558108 1.3450352 1.0596696
1.9566247 1.4716566 1.0563469
1.9679961 1.5162475 1.0868647
1.9923611 0.49139321 1.1843115
2.0050931 0.49562788 1.1050781
1.995384 0.50512183 1.1463867
2.0114198 0.52255732 1.1314201
1.9846058 0.73235297 1.1689324
1.9711926 0.89500403 1.124198
1.9708986 0.97069812 1.1100887
1.9489322 1.4959778 1.1452852
1.9636545 1.5122944 1.1854436
1.9976172 0.48341864 1.2559036
2.0067103 0.48595351 1.2555109
1.9949898 0.50621033 1.2160652
2.005888 0.50901318 1.2300444
1.9571441 1.4944702 1.2724595
1.9752151 1.5223131 1.2918431
2.0040429 1.5816933 1.2959417
1.9922736 0.49012995 1.391504
2.0054164 0.48897773 1.3778555
1.9951987 0.50510466 1.3572097
2.0152686 0.50584209 1.3813328
1.9542122 1.4987702 1.3615859
1.9766221 1.5311712 1.311636
2.0104122 1.5839964 1.3907194
2.0355573 1.6046081 1.3003018
1.9946954 0.49958038 1.4349357
2.0024757 0.49843499 1.4342101
1.9969804 0.50819457 1.4340599
2.005198 0.50603473 1.4320753
1.9648073 1.4907334 1.4153366
1.9757829 1.5313276 1.4522057
2.0051832 1.5501497 1.4905052
2.0400338 1.6056368 1.4790109
1.9891984 0.4996174 1.5137289
2.0031085 0.497713 1.5825093
1.9944915 0.50430965 1.5377787
2.0094302 0.51179302 1.5720806
2.0856054 0.62017834 1.5574554
1.9694226 1.4949987 1.5529722
1.9907902 1.5403934 1.5864584
2.0024636 1.5473332 1.5835308
2.1013572 1.652993 1.5605092
1.9930875 0.49022317 1.6593168
2.0043435 0.49957651 1.6620108
1.9959863 0.51040173 1.662997
2.01055 0.51036704 1.6610719
1.9507837 1.4926412 1.6890833
1.9877846 1.5377545 1.6777046
2.001842 1.5478847 1.6742928
2.0415211 1.6049305 1.6654389
2.1099463 1.6532496 1.6685905
1.9854443 0.49901333 1.7392689
2.0092273 0.49876237 1.750995
1.9971194 0.50403225 1.7375771
2.0117984 0.50964844 1.7359223
2.1352048 0.56735247 1.7582263
2.0970511 0.6062426 1.74347
1.9768281 1.4642923 1.7859147
1.995724 1.5445607 1.7664912
2.0044484 1.5507203 1.7653085
2.1129842 1.5568955 1.731895
1.9636717 1.6112118 1.7985961
2.0514646 1.6102731 1.7593514
2.1585922 1.6969852 1.7506446
1.9947357 0.48989654 1.8569318
2.0068374 0.49742791 1.8747368
1.9925944 0.51861352 1.8558533
2.0168076 0.51810712 1.8466047
2.1227353 0.5647763 1.8011187
1.9824491 1.492612 1.837814
1.9798799 1.5344039 1.8571467
2.0008113 1.5470874 1.8558673
1.9233053 1.6266609 1.808913
2.0827217 1.6181737 1.8549926
1.9951968 0.49442145 1.9405636
2.0097489 0.49845427 1.9554279
1.9944828 0.52086973 1.9577349
2.015986 0.52063978 1.9575599
1.9762602 1.4937778 1.916796
2.06896 1.4735506 1.9714661
1.9886841 1.5382762 1.9455776
2.0035431 1.556108 1.9449626
2.0494268 1.6081313 1.9443139
1.9976783 0.49519914 2.0983286
2.0016403 0.49935839 2.0284915
1.99523 0.51583946 2.0306447
2.0176864 0.52554965 2.0314023
1.9991813 0.63056034 2.0983093
2.0075629 0.66611421 2.0970848
1.997858 0.76179373 2.0995407
2.0056274 0.75580412 2.0926881
1.9966257 0.87534153 2.0889158
2.0060425 0.83118612 2.0883679
1.998252 0.96729994 2.0902288
2.0027511 0.96511012 2.0900505
1.9960389 1.0426087 2.0879967
2.0049717 1.0578753 2.0891712
1.9960788 1.1620785 2.0900788
2.0034573 1.1555911 2.0914621
1.9953425 1.271008 2.0861683
2.0036013 1.2475172 2.0933204
1.9898952 1.3339859 2.0859227
2.0024772 1.3445876 2.0942333
1.9877412 1.4398215 2.0898192
2.0048883 1.4405491 2.0937562
1.9914032 1.5453269 2.0345452
2.0018213 1.5537943 2.0344987
2.0413852 1.6083139 2.0374873
1.9949331 0.49684361 2.1072676
2.004683 0.49535406 2.1049252
1.9952834 0.56688565 2.1046374
2.0068457 0.57252771 2.1052487
1.8957242 0.65996319 2.1344059
1.9980723 0.64248109 2.1055884
2.0072579 0.65397471 2.1061778
1.9963838 0.74271166 2.1065049
2.0067725 0.73643625 2.1071982
1.9976249 0.83101785 2.1052916
2.0059831 0.82210827 2.1041689
1.9959788 0.96400553 2.1022584
2.01754 0.93741679 2.1019044
1.9918787 1.0280049 2.1019826
2.0052559 1.0428061 2.1021113
1.9939916 1.1224318 2.1023378
2.0032561 1.1422298 2.10146
1.9956915 1.25774 2.1020465
2.0034146 1.2447817 2.1010988
1.9918325 1.3571453 2.1038461
2.0029192 1.3356256 2.1018777
1.9943616 1.4680271 2.1024935
2.0110426 1.4266866 2.1068316
1.9781874 1.5223594 2.1007578
2.0137076 1.529001 2.112349
1.9681675 0.99190462 0.99940538
1.9878731 0.4921962 1.0967238
2.0064065 0.48766315 1.0914843
1.9833187 0.50716019 1.0920231
2.002676 0.5150044 1.0937966
1.9812961 0.66189259 1.0834315
2.0052619 0.62237638 1.0727438
1.982236 0.76086354 1.0786703
2.0077426 0.72462726 1.0607642
1.9806561 0.86779934 1.0806544
1.9831779 0.97906214 1.0763184
1.9632233 1.0419147 1.0710131
1.9713683 1.1311331 1.074466
1.9570684 1.278515 1.0653133
1.9558108 1.3450352 1.0596696
1.9566247 1.4716566 1.0563469
1.9679961 1.5162475 1.0868647
1.9923611 0.49139321 1.1843115
2.0050931 0.49562788 1.1050781
1.995384 0.50512183 1.1463867
2.0114198 0.52255732 1.1314201
1.9846058 0.73235297 1.1689324
1.9711926 0.89500403 1.124198
1.9708986 0.97069812 1.1100887
1.9489322 1.4959778 1.1452852
1.9636545 1.5122944 1.1854436
1.9976172 0.48341864 1.2559036
2.0067103 0.48595351 1.2555109
1.9949898 0.50621033 1.2160652
2.005888 0.50901318 1.2300444
1.9571441 1.4944702 1.2724595
1.9752151 1.5223131 1.2918431
2.0040429 1.5816933 1.2959417
1.9922736 0.49012995 1.391504
2.0054164 0.48897773 1.3778555
1.9951987 0.50510466 1.3572097
2.0152686 0.50584209 1.3813328
1.9542122 1.4987702 1.3615859
1.9766221 1.5311712 1.311636
2.0104122 1.5839964 1.3907194
2.0355573 1.6046081 1.3003018
1.9946954 0.49958038 1.4349357
2.0024757 0.49843499 1.4342101
1.9969804 0.50819457 1.4340599
2.005198 0.50603473 1.4320753
1.9648073 1.4907334 1.4153366
1.9757829 1.5313276 1.4522057
2.0051832 1.5501497 1.4905052
2.0400338 1.6056368 1.4790109
1.9891984 0.4996174 1.5137289
2.0031085 0.497713 1.5825093
1.9944915 0.50430965 1.5377787
2.0094302 0.51179302 1.5720806
2.0856054 0.62017834 1.5574554
1.9694226 1.4949987 1.5529722
1.9907902 1.5403934 1.5864584
2.0024636 1.5473332 1.5835308
2.1013572 1.652993 1.5605092
1.9930875 0.49022317 1.6593168
2.0043435 0.49957651 1.6620108
1.9959863 0.51040173 1.662997
2.01055 0.51036704 1.6610719
1.9507837 1.4926412 1.6890833
1.9877846 1.5377545 1.6777046
2.001842 1.5478847 1.6742928
2.0415211 1.6049305 1.6654389
2.1099463 1.6532496 1.6685905
1.9854443 0.49901333 1.7392689
2.0092273 0.49876237 1.750995
1.9971194 0.50403225 1.7375771
2.0117984 0.50964844 1.7359223
2.1352048 0.56735247 1.7582263
2.0970511 0.6062426 1.74347
1.9768281 1.4642923 1.7859147
1.995724 1.5445607 1.7664912
2.0044484 1.5507203 1.7653085
2.1129842 1.5568955 1.731895
1.9636717 1.6112118 1.7985961
