# .PCD v0.7 - Point Cloud Data file format
VERSION 0.7
FIELDS x y z
SIZE 4 4 4
TYPE F F F
COUNT 1 1 1
WIDTH 1525
HEIGHT 1
VIEWPOINT 0 0 0 1 0 0 0
POINTS 1525
DATA ascii
5.7859721 -0.41473106 0.43472666
5.8120861 -0.42270881 0.45418388
3.5276041 -0.3840538 0.47866207
5.7737503 -0.3239224 0.4325797
5.8277102 -0.37920424 0.48737758
6.0774755 -0.31264782 0.49351054
3.1880727 -0.23184116 0.42970902
3.2349322 -0.23502016 0.43853229
3.4946241 -0.2485953 0.41928619
3.5035102 -0.25575376 0.47424299
5.7666912 -0.22262922 0.43540961
5.8385754 -0.24434324 0.48629445
5.9917278 -0.2774021 0.4372924
6.0128002 -0.26942721 0.43136555
6.1099219 -0.25713897 0.47177631
5.7654934 -0.14351852 0.43637413
5.8456779 -0.18117122 0.48773748
5.7643147 -0.088475853 0.43703038
5.8306746 -0.044369943 0.48773819
5.9304705 -0.061351214 0.45295078
6.0807905 -0.029589973 0.4654935
6.1210747 -0.019369908 0.47476059
5.7844644 0.021022733 0.43826371
5.9785814 0.025269803 0.40412456
6.0182199 0.032303672 0.40588301
4.7138724 1.083333 0.46055514
4.3867321 1.1968665 0.43088347
4.4168568 1.1927952 0.42206627
4.5308433 1.1981825 0.47208816
4.6633348 1.1586654 0.4490189
4.7449446 1.1583688 0.46728677
4.386126 1.2681336 0.49080902
4.4076385 1.2377702 0.48796862
4.5758142 1.2210596 0.49246675
4.659656 1.2350469 0.47025758
4.7252913 1.2454262 0.45290834
4.8150396 1.2035789 0.48045808
4.3699279 1.3351697 0.48959988
4.5544233 1.3756704 0.47875684
4.6763153 1.3277447 0.46213681
4.29568 1.4788558 0.41880804
4.3271751 1.4626698 0.48407465
4.4991484 1.4647051 0.48285252
4.5582228 1.4869378 0.43735081
4.6126275 1.4656943 0.42910939
4.2827806 1.5329338 0.47834426
4.4870572 1.5073423 0.46533531
4.5982885 1.5080782 0.49692219
4.6215844 1.5079086 0.41970736
6.5871015 -1.7337931 0.51353127
6.6557207 -1.7173303 0.51793116
6.7382431 -1.7345243 0.51094085
6.4147038 -1.6049335 0.58761626
6.5293074 -1.6399258 0.53772932
6.6569157 -1.6820595 0.55734342
6.3991952 -1.5929794 0.58003801
6.4704208 -1.5246348 0.50920576
6.5344009 -1.522576 0.53339857
6.6039934 -1.5021993 0.50228816
6.874826 -1.5255303 0.57515723
6.9253063 -1.5109043 0.59143645
6.4897623 -1.4915099 0.51397699
6.5073385 -1.4652002 0.53712779
6.6123047 -1.4721857 0.5214892
6.7453885 -1.4700224 0.53285187
6.8462248 -1.485127 0.58477813
6.9402661 -1.4984612 0.58139998
6.5768838 -1.3619069 0.52015775
6.6116886 -1.3251483 0.51729697
6.6183319 -1.2937258 0.503043
3.5131242 -0.60375369 0.58633834
3.254302 -0.52688396 0.57524163
3.3418016 -0.5231725 0.55485231
3.4681821 -0.54728395 0.57542425
3.5214889 -0.54082704 0.59128493
3.1815429 -0.49500871 0.55367941
3.2887182 -0.49835336 0.57447737
3.4843884 -0.44685176 0.54771537
3.5096593 -0.41460556 0.593741
3.4719172 -0.35449865 0.53498131
3.5150185 -0.38730657 0.59458941
5.7648277 -0.31693688 0.59421593
5.8103786 -0.33741343 0.54269534
3.2250564 -0.22714171 0.51998836
3.4828851 -0.24938308 0.57590967
3.5041239 -0.2568239 0.54175848
5.7554531 -0.21894984 0.54999715
5.8033524 -0.23025118 0.53726655
6.0541697 -0.27951699 0.50993377
5.7576828 -0.15805727 0.52055341
5.8087044 -0.15879175 0.52588743
6.0351076 -0.13896626 0.59627205
6.1322289 -0.13969418 0.58182102
5.768085 -0.056695409 0.51833898
5.8152442 -0.045962814 0.53594905
5.9364681 -0.029764906 0.56479603
6.0175757 -0.073508367 0.58637124
6.1185398 -0.017922256 0.58009821
5.7856321 0.0097968578 0.56672519
5.803401 0.0056393147 0.55108207
6.0561943 0.039189488 0.59450394
6.1036587 0.043196414 0.58553666
6.0672874 0.14888617 0.59248394
6.1299992 0.16532275 0.58315152
6.0810637 0.20370685 0.59220046
4.3923206 1.1866143 0.54106122
4.4347162 1.1951323 0.52993053
4.5659628 1.1849856 0.54972667
4.6715055 1.1797234 0.53205782
4.7440672 1.1923046 0.52245134
4.3801503 1.2776953 0.53765684
4.4061422 1.2723787 0.53145987
4.5252895 1.212401 0.50600868
4.6513348 1.2336558 0.52396077
4.7105465 1.2338576 0.55206162
4.3576245 1.3550233 0.53747231
4.429976 1.3391097 0.59502274
4.588294 1.3135059 0.54645163
4.6363931 1.3414524 0.58864146
4.2923589 1.485014 0.54318362
4.3177032 1.4821321 0.53728968
4.4057884 1.4574339 0.58508974
4.5911999 1.4699138 0.57526118
4.6114893 1.436042 0.57643348
4.2865782 1.5371325 0.54149348
4.3378172 1.505789 0.53043419
4.6132917 1.5164689 0.58091122
4.2697878 1.617066 0.53132302
6.6364145 -1.8469515 0.68795043
6.7648306 -1.8011324 0.69361454
6.4587984 -1.7030666 0.6704132
6.5809579 -1.7924887 0.68815023
6.6619825 -1.7065542 0.68485731
6.7159805 -1.7162311 0.65277237
6.4409723 -1.6053561 0.61937934
6.5862389 -1.6741197 0.69757789
6.6196146 -1.6924164 0.69154578
6.3979506 -1.5541004 0.61285299
6.4793711 -1.5432212 0.69454223
6.5032225 -1.5192078 0.69115955
6.6395569 -1.526041 0.68140239
6.7997837 -1.5202572 0.65457767
6.8771739 -1.5141609 0.68034893
6.9153919 -1.5517606 0.61833721
6.4831843 -1.4943624 0.68662924
6.5420456 -1.441542 0.67778581
6.6688027 -1.4265842 0.69226199
6.7665195 -1.4691395 0.69008189
6.8804502 -1.4777535 0.62009567
6.9269629 -1.4898512 0.60680658
6.5584116 -1.3905898 0.68580943
6.6292953 -1.3275852 0.6661287
3.5403211 -0.60639429 0.68809575
3.2417562 -0.50925314 0.65551835
3.391871 -0.52670312 0.67933351
3.4483924 -0.52399206 0.64892083
3.5331569 -0.53000641 0.69071382
3.1865516 -0.47685945 0.65373236
3.4976904 -0.44737107 0.6850372
3.5105677 -0.40681076 0.67903537
5.794868 -0.41980994 0.64621931
5.8433151 -0.40324438 0.67383546
3.4979701 -0.36332047 0.66628081
3.5089841 -0.38890105 0.67272288
5.7804022 -0.32609412 0.64393598
5.8122067 -0.32935899 0.62610966
6.0584116 -0.30787128 0.66515309
3.1703582 -0.22985321 0.61803633
3.2579145 -0.2402713 0.61851627
3.3778534 -0.24791893 0.63378698
3.4936857 -0.25741529 0.68012255
3.5129328 -0.25772488 0.64776069
5.7706146 -0.20699838 0.64707166
5.8055878 -0.25651723 0.64334184
5.9910173 -0.28590047 0.63888866
6.0309067 -0.2891956 0.62929469
5.7686338 -0.14374058 0.64786786
5.8120375 -0.1591969 0.65177017
5.7660112 -0.088914588 0.64870137
5.8096867 -0.019307772 0.65038282
5.9645367 -0.048035029 0.67433065
6.089406 -0.029128093 0.68159264
6.1267309 -0.01580264 0.67971605
6.2032804 -0.022594728 0.60181314
5.7897263 0.025369678 0.64912206
5.846705 0.016605489 0.63643533
5.9902658 0.029050183 0.60686392
6.0040412 0.033611193 0.60426992
6.1038857 0.082643442 0.6232633
5.9999962 0.11567032 0.61242396
4.4926252 1.0569366 0.69219917
4.3827143 1.1929164 0.61028892
4.4232793 1.1817473 0.68447679
4.5378966 1.1456796 0.65522581
4.6241226 1.16971 0.63152498
4.3934965 1.2603586 0.69182974
4.4520459 1.2032276 0.6975103
4.5692902 1.2126226 0.6276415
4.6199956 1.2113435 0.63313466
4.7104788 1.2495883 0.66595751
4.3741522 1.3377308 0.68859476
4.4176607 1.3418382 0.69313771
4.6399417 1.3429637 0.60994416
4.2906923 1.4752772 0.6094982
4.3456807 1.444159 0.69703978
4.414526 1.4586687 0.63030368
4.5314455 1.4886976 0.66571504
4.6154513 1.4422698 0.62473708
4.2866917 1.526365 0.68133384
4.3593493 1.5137874 0.69736308
4.4649296 1.5098201 0.66715544
4.5371094 1.5162644 0.65763599
4.6094913 1.5187609 0.61728102
4.2756071 1.6252294 0.69299835
6.5601459 -1.8364172 0.70265573
6.486762 -1.7018139 0.76684946
6.5892687 -1.7302999 0.74771625
6.6506395 -1.7107079 0.71616632
6.7123432 -1.7329019 0.71152622
6.3948851 -1.6080866 0.73709041
6.4061227 -1.6084096 0.7268098
6.5596237 -1.6633799 0.70197457
6.6222353 -1.6874962 0.7229932
6.715857 -1.6909139 0.71485859
6.3950577 -1.5737329 0.78490335
6.4680371 -1.5099366 0.72115213
6.5674639 -1.5770414 0.73011333
6.6364651 -1.5666593 0.70288807
6.7790942 -1.5001581 0.72154206
6.8701706 -1.5180137 0.77174336
6.9310808 -1.5055914 0.7542699
6.4802027 -1.4851996 0.72024137
6.5051565 -1.4657995 0.71748477
6.6769781 -1.44069 0.7945779
6.7533321 -1.4622595 0.79553849
6.8615165 -1.4934602 0.78193671
6.9310956 -1.4947855 0.78554219
6.5685253 -1.3565736 0.7116757
6.6123352 -1.3409629 0.72025496
6.5885677 -1.2626393 0.7189526
6.6100035 -1.2309735 0.71674675
3.5488143 -0.61762989 0.77259427
3.193821 -0.52463675 0.72648305
3.2479119 -0.50666738 0.7661069
3.3659916 -0.50817925 0.79236835
3.4180856 -0.51786035 0.79276806
3.5612667 -0.52885711 0.79273885
3.163878 -0.46494019 0.76071745
3.2340832 -0.49671704 0.74226481
3.3671246 -0.49142098 0.7388292
3.4867861 -0.44818047 0.75713581
3.5190156 -0.40394595 0.7805925
3.1824231 -0.31922436 0.73781306
3.4926145 -0.3670792 0.76235634
3.5150795 -0.38259238 0.78175849
5.7803125 -0.31611276 0.72454125
5.8280869 -0.32267109 0.72135168
5.9113531 -0.30914897 0.73584718
6.0207682 -0.30361199 0.7852959
3.0968695 -0.23770469 0.79191905
3.1804092 -0.22579728 0.77851635
3.2311313 -0.22150084 0.77225322
3.3712604 -0.25526476 0.76911217
3.4861288 -0.23785794 0.7624175
3.5107303 -0.24161103 0.75526947
5.7737541 -0.21740127 0.75446302
5.8096271 -0.23202543 0.72534388
6.0372372 -0.28469673 0.71347612
5.7760186 -0.15279992 0.7114318
5.8055868 -0.18032224 0.71929282
5.7803202 -0.05632126 0.71026975
5.8179655 -0.028393067 0.77928358
5.9649777 -0.012201779 0.78978115
6.0290504 -0.0092809405 0.77831668
6.1271544 -0.020128209 0.78996736
6.2119055 -0.030624866 0.73143131
5.7888107 0.0050545195 0.74302012
5.8098102 0.0086797476 0.73605376
6.0076184 0.0012122691 0.77409023
6.1334362 0.010955676 0.76736504
4.3864875 1.1930629 0.7124334
4.4135532 1.1977544 0.70613128
4.5546126 1.1849037 0.73505837
4.6335821 1.1954229 0.73875207
4.2874126 1.2930987 0.76256996
4.3689728 1.2873316 0.71043569
4.421608 1.2028053 0.70480531
4.5138063 1.2181103 0.72060543
4.6752825 1.2154524 0.77472812
4.7465286 1.2371007 0.75729638
4.3611779 1.3471107 0.70823234
4.4103775 1.3193288 0.74577099
4.5883727 1.3300467 0.72351664
4.6442437 1.3365058 0.78179485
4.2985477 1.4771488 0.71255344
4.3233399 1.4598612 0.70856971
4.4500513 1.4766777 0.78713936
4.5966272 1.4821312 0.74686176
4.6105971 1.4559865 0.76094133
4.2935638 1.5114875 0.73361415
4.3279285 1.5010231 0.7047711
4.5875974 1.5186125 0.73773962
4.6112247 1.5130627 0.75675756
4.2663488 1.6139241 0.70506316
6.460248 -1.7000936 0.8341437
6.6559229 -1.7132161 0.88218981
6.7083049 -1.7346388 0.84546202
6.3948421 -1.6391649 0.84291118
6.4638863 -1.6086555 0.86866635
6.530889 -1.6510805 0.81613362
6.6540861 -1.6676199 0.80576432
6.7017422 -1.6982645 0.88837367
6.3981647 -1.5636909 0.81582463
6.4240599 -1.5541435 0.80255646
6.5153065 -1.5119401 0.86975396
6.6036506 -1.5932143 0.81531233
6.8540821 -1.5112338 0.85764831
6.9496746 -1.5140668 0.89458853
6.4576874 -1.476935 0.82011342
6.5222774 -1.4626126 0.82482177
6.6562223 -1.4310325 0.88789874
6.7486339 -1.4685808 0.87995821
6.8556519 -1.4901942 0.85335356
6.5518913 -1.3265468 0.80884916
6.608428 -1.3579105 0.83345705
3.2925186 -0.60402143 0.87677819
3.5386577 -0.61362076 0.87049794
3.277415 -0.51114392 0.86154538
3.3523285 -0.53012478 0.84778708
3.4348736 -0.52546322 0.83091062
3.5220256 -0.5365268 0.82075554
3.1975334 -0.45211911 0.8292768
3.2620842 -0.42019829 0.86899626
3.3158412 -0.45467851 0.87892032
3.4960136 -0.42024046 0.82846826
3.5245647 -0.41590068 0.87667328
5.7949209 -0.42179465 0.85543233
5.8307018 -0.40346727 0.89433855
3.2442865 -0.34825408 0.87591547
3.3032 -0.36311042 0.87759876
3.4967172 -0.37417415 0.81206775
3.5177999 -0.38804528 0.8552776
5.6886654 -0.31746137 0.885028
5.7693367 -0.32782847 0.85569781
5.8144212 -0.31375384 0.86305994
5.9128475 -0.31020242 0.84259456
6.0360074 -0.30403745 0.86454988
3.1922956 -0.20923662 0.89329928
3.2306614 -0.26427555 0.88159734
3.320827 -0.21944217 0.85910541
3.4913151 -0.24675047 0.87342364
3.5027356 -0.25717694 0.86023152
3.6113408 -0.28927496 0.89650953
5.6243339 -0.29493415 0.88070112
5.764184 -0.20916942 0.85759467
5.8056126 -0.26437482 0.83708298
5.9468088 -0.29222214 0.84352249
6.0078526 -0.28120482 0.8416068
6.1024284 -0.29458308 0.80885899
3.2324727 -0.18724748 0.89595032
5.7671189 -0.15436766 0.85746872
5.8576751 -0.14878237 0.83664703
5.9562674 -0.16206536 0.83034986
6.0328751 -0.10094213 0.89994639
5.7710457 -0.097317323 0.85719341
5.8303919 -0.012177803 0.85262185
5.948225 -0.022547664 0.86764485
6.0495949 -0.083288789 0.89599127
6.1193261 -0.0068257567 0.83838385
6.2045774 -0.034439325 0.82814473
5.7900968 0.014263004 0.85688132
5.8851991 0.0065264776 0.84017366
5.9422402 0.013722906 0.83147889
6.0716314 0.013907253 0.88450676
6.1510696 0.01411752 0.82566088
5.9662838 0.13242072 0.8325966
4.7031546 1.0950072 0.82104671
4.3838406 1.1894743 0.88064289
4.4046497 1.1939172 0.87682277
4.5199828 1.1953371 0.85187787
4.6451797 1.1792114 0.82623678
4.7254481 1.1583452 0.81933302
4.2845287 1.2037048 0.82551235
4.377809 1.2847062 0.8769784
4.4624071 1.2052445 0.86564589
4.5573454 1.2253288 0.84753555
4.6393404 1.2422602 0.83184141
4.7607493 1.2682527 0.80853128
4.8295736 1.2196677 0.84641713
4.3579774 1.3524854 0.87687582
4.4533768 1.325647 0.89756733
4.5879822 1.3755087 0.8350817
4.6493073 1.3309984 0.82743019
4.7496676 1.3489654 0.8079651
4.2899904 1.4853793 0.88134462
4.3130465 1.469618 0.87819856
4.4514766 1.463429 0.87721807
4.5450144 1.4859794 0.85519671
4.645628 1.4437476 0.83515388
4.2846193 1.5708549 0.87730569
4.3361959 1.5072334 0.87172228
4.4183741 1.5274212 0.857853
4.588069 1.522112 0.80566508
4.6072078 1.5087587 0.81970096
4.2869306 1.6266706 0.86642951
4.3141389 1.6554323 0.85812581
6.5729418 -1.8243568 0.94363254
6.4946408 -1.7477452 0.97130126
6.5556831 -1.7656045 0.93278199
6.657609 -1.7028104 0.93168008
6.7202711 -1.7877214 0.97377592
6.3960619 -1.6125945 0.96347356
6.4378409 -1.6242951 0.95923364
6.528821 -1.6530745 0.94785506
6.6202397 -1.6873854 0.93671912
6.3951783 -1.591578 0.93816823
6.4732456 -1.5038037 0.95902812
6.5473585 -1.5673733 0.97096258
6.6428056 -1.5683292 0.94669604
6.7298179 -1.5160685 0.99453998
6.8534107 -1.5087707 0.96194363
6.9647069 -1.5629444 0.90312195
6.4802504 -1.4916148 0.95835954
6.5055676 -1.4793314 0.95557708
6.6568952 -1.4378186 0.99715257
6.7484159 -1.4823278 0.99217629
6.8226571 -1.4848268 0.97747982
6.9222279 -1.4867985 0.94226509
6.5688715 -1.365878 0.95177788
6.6046171 -1.3689761 0.98269397
6.5780125 -1.2783427 0.9783178
6.6123857 -1.2475147 0.95786208
3.3006971 -0.60464811 0.99656713
3.4860702 -0.6200394 0.91931182
3.5665979 -0.60827094 0.93147224
3.6189299 -0.60487616 0.94536835
3.2637153 -0.5076583 0.98947644
3.314687 -0.51974213 0.9785465
3.4560676 -0.52365959 0.95252335
3.5519109 -0.5326407 0.94288337
3.6167486 -0.54725051 0.91586179
3.1567974 -0.45523429 0.90986788
3.264991 -0.42119169 0.99206907
3.3169639 -0.45093495 0.98873335
3.462204 -0.49304274 0.97879529
3.5380406 -0.47477874 0.96505666
3.601635 -0.43707943 0.95319712
5.7893553 -0.41679502 0.99257654
5.8520885 -0.40851736 0.9024778
3.2513649 -0.36603531 0.99668097
3.3126125 -0.33718619 0.95037901
3.4963264 -0.36318237 0.9481203
3.5161927 -0.39088663 0.94885963
5.6795917 -0.3285656 0.97828615
5.7693548 -0.32419437 0.92132837
5.8083162 -0.31041774 0.92352158
5.9233656 -0.31298649 0.9552837
6.0372057 -0.30615646 0.97615057
3.1957464 -0.20927371 0.94400781
3.2496715 -0.28603369 0.99894679
3.3275931 -0.23040387 0.96097189
3.4801629 -0.25532222 0.97939223
3.5076339 -0.25350833 0.9759348
3.6298273 -0.29269922 0.92433316
5.6776094 -0.29452324 0.98350549
5.7686439 -0.23437582 0.91834706
5.8048267 -0.22658634 0.92446512
5.9598856 -0.29471701 0.94444805
6.0298252 -0.26917589 0.92617911
3.2132249 -0.18079218 0.9169457
3.3276668 -0.12671661 0.90752947
5.7669406 -0.15737201 0.90840989
5.8023109 -0.13603587 0.94050419
6.0745535 -0.16378179 0.95217818
3.2672973 -0.096777439 0.97476441
5.7752008 -0.059331894 0.91327053
5.8205233 -0.014821712 0.91794163
5.9717841 -0.030847192 0.99768585
6.0683308 -0.049782187 0.93058556
6.1247272 -0.041447371 0.98571986
5.7745428 0.0057808608 0.94214457
5.8773189 0.0092177009 0.94665235
6.0673857 0.0067922911 0.96974689
6.1660275 0.0028574076 0.94698262
4.2910309 1.1980689 0.90848076
4.3886585 1.189187 0.91222048
4.4036741 1.1982715 0.96342343
4.5893054 1.1907814 0.96435195
4.65207 1.1647817 0.97155303
4.2588558 1.2077669 0.91275895
4.3814487 1.2877996 0.90565509
4.4284887 1.2129543 0.92314386
4.5664797 1.2209975 0.9614771
4.6466937 1.21788 0.95521373
4.7051044 1.2416235 0.9224503
4.3583426 1.3463821 0.90296036
4.4351096 1.3502433 0.99511278
4.5976605 1.3260248 0.9041599
4.6457605 1.3468125 0.94754428
4.2937994 1.481697 0.93520689
4.3156118 1.4757445 0.90728718
4.4152842 1.4537065 0.96679312
4.5975237 1.4433889 0.95979136
4.6214681 1.4211582 0.94257355
4.2985015 1.5074521 0.90538394
4.3217545 1.5131257 0.91488093
4.598917 1.5168976 0.96929032
4.6294618 1.5142467 0.93969017
6.4948258 -1.7018397 1.001774
6.5098467 -1.7102926 1.0007182
6.6899424 -1.7148674 1.0579556
6.7121177 -1.7410569 1.0161495
6.3970237 -1.6108012 1.0905353
6.4551973 -1.6113734 1.0472952
6.5490637 -1.6291703 1.0489508
6.6582022 -1.6767875 1.0037953
6.7018375 -1.6923234 1.0731553
6.8837943 -1.6147697 1.0146978
6.3927631 -1.5703897 1.0126021
6.4584951 -1.5375075 1.0106108
6.5067921 -1.5099157 1.0347548
6.7638822 -1.5182804 1.0970609
6.8354864 -1.5562119 1.0855656
6.9327292 -1.5076863 1.0716866
6.4846067 -1.4705849 1.0183389
6.5142255 -1.4654627 1.0675945
6.6416368 -1.4356266 1.0971527
6.7205248 -1.474854 1.0939187
6.8261251 -1.4936289 1.0522919
6.9187369 -1.4738959 1.0643433
6.5700798 -1.3586452 1.0091916
6.6123476 -1.3481104 1.0220094
3.2882767 -0.60575205 1.0013617
3.5447145 -0.60921973 1.0619649
3.6595926 -0.62721038 1.0240176
3.2794418 -0.51558328 1.0046059
3.3427811 -0.52674288 1.0972887
3.4415607 -0.52297533 1.0768892
3.5198283 -0.53441834 1.073036
3.6029265 -0.5179618 1.0418328
3.1912992 -0.43852627 1.0433
3.2525165 -0.40265417 1.0005597
3.3143578 -0.48419386 1.0400442
3.4176774 -0.49724448 1.063686
3.5195637 -0.49542293 1.0722584
3.600584 -0.44741213 1.0586843
5.7890449 -0.42257875 1.0631073
5.840167 -0.40447217 1.0985839
3.2377856 -0.31418246 1.000991
3.3099437 -0.34137774 1.0175226
3.4900064 -0.3423287 1.0347822
3.5096896 -0.38122883 1.0543028
3.609875 -0.37661409 1.0468407
5.6872683 -0.33502293 1.0071447
5.7659178 -0.32766128 1.0635816
5.8274422 -0.31142119 1.0468818
5.958168 -0.30960181 1.0423855
6.0276308 -0.30880854 1.0451655
3.193346 -0.21455842 1.0136297
3.2238951 -0.26493135 1.0051296
3.3853993 -0.23466469 1.066733
3.4853988 -0.26479626 1.0777429
3.5040269 -0.25791311 1.0314366
3.6055579 -0.29136729 1.0738018
5.6953173 -0.29275131 1.0030302
5.7636714 -0.20888813 1.0648549
5.8044624 -0.26559597 1.0553224
5.9533095 -0.29195479 1.0366977
6.0152388 -0.29063371 1.0493784
3.1982374 -0.19838178 1.0481129
3.2139661 -0.19018325 1.0311995
3.4732552 -0.19654512 1.0959477
5.7670431 -0.15266646 1.0646558
5.8136387 -0.1254546 1.0614152
5.9670501 -0.16419673 1.0411075
6.0786562 -0.16880658 1.0435314
6.1015382 -0.18743515 1.0409409
5.7775126 -0.058069319 1.0651804
5.8538752 -0.0016554362 1.0551126
5.9217596 -0.011723964 1.0691888
6.0673151 -0.026888544 1.0332261
6.1011715 -0.067230605 1.0903692
6.2135401 -0.010236621 1.0556877
5.7869463 0.010862905 1.0588357
5.8872275 0.0029821172 1.051263
5.9435625 0.0093866196 1.0446215
6.0067797 0.019194733 1.0374922
6.1613064 0.0077913031 1.0675353
5.9667482 0.15015563 1.0434021
6.0143399 0.11245316 1.0433357
4.5696588 1.0753791 1.0175639
4.3855648 1.1919079 1.0457402
4.4106107 1.1938138 1.0422193
4.5559568 1.188817 1.0765619
4.6140728 1.1525493 1.0270692
4.2669587 1.2082617 1.0587152
4.3762512 1.288425 1.0431606
4.476913 1.2096668 1.0314587
4.5625925 1.2300059 1.0183736
4.6361823 1.2302642 1.0934446
4.7123213 1.2414422 1.0093017
4.3579473 1.3507355 1.0430844
4.4336348 1.3255196 1.0616426
4.5273724 1.352947 1.0171963
4.6339235 1.3865836 1.0921803
4.2966805 1.4859074 1.0456119
4.3279405 1.4407393 1.043341
4.4246626 1.4158981 1.089698
4.5481014 1.4887297 1.0416377
4.6172128 1.4531074 1.0856444
4.2965102 1.5185362 1.0630608
4.335597 1.5098938 1.038717
4.5682206 1.5208542 1.0667021
4.6179938 1.506281 1.0474724
4.2653637 1.6303902 1.0329225
4.3064656 1.6212316 1.0364224
6.5415063 -1.8052944 1.1871185
6.6261015 -1.8398266 1.1783274
6.4315329 -1.756865 1.1904804
6.5697651 -1.7227186 1.1605871
6.6426649 -1.7230574 1.1643906
6.7093534 -1.7236449 1.1769483
6.397531 -1.6062261 1.1782676
6.4499254 -1.620785 1.1943932
6.5432587 -1.6548707 1.186069
6.6302652 -1.6859984 1.1788498
6.7356148 -1.6384289 1.1400118
6.3919716 -1.5810117 1.1340777
6.4838543 -1.5094831 1.1943406
6.5646896 -1.544172 1.1951393
6.6568174 -1.5477781 1.1752281
6.7822175 -1.5054852 1.178965
6.8166895 -1.5406719 1.1796564
6.4839287 -1.4901519 1.1944416
6.5056868 -1.4643291 1.1933006
6.6154222 -1.4227549 1.1981163
6.7182984 -1.4582888 1.1977477
6.8347979 -1.4981865 1.1311479
6.9113746 -1.46776 1.1415446
6.5786324 -1.3609831 1.1896023
6.6039362 -1.3316598 1.1253117
6.613658 -1.2609065 1.1728644
6.7022028 -1.2404791 1.1762632
6.6168938 -1.1982597 1.192867
3.2945707 -0.605308 1.1206113
3.3104877 -0.6070379 1.1185575
3.5777459 -0.6156711 1.1808969
3.6453109 -0.60836864 1.1437744
3.2800379 -0.5130887 1.1085976
3.3105278 -0.52018464 1.1030792
3.4803917 -0.53187239 1.1936485
3.5425489 -0.53350842 1.1888947
3.6044149 -0.52584577 1.138932
3.1961284 -0.43125409 1.1401594
3.2704678 -0.423724 1.1129129
3.3127501 -0.49091136 1.1284564
3.4233761 -0.498025 1.1666342
3.5090466 -0.49557516 1.143391
3.608469 -0.43677324 1.1495656
5.8141561 -0.40121543 1.1062807
3.2488527 -0.35050786 1.1187052
3.3047657 -0.37804627 1.1245661
3.4892802 -0.34637135 1.126147
3.5252697 -0.39285916 1.1488583
3.6074271 -0.36491612 1.1480631
5.6839952 -0.3344714 1.1535264
5.7625351 -0.32578111 1.1271822
5.8127384 -0.33313048 1.1668605
5.9064736 -0.31128231 1.1343939
6.0729675 -0.30604193 1.1501209
3.1951113 -0.20967026 1.1314185
3.2253008 -0.26380527 1.1247647
3.3073666 -0.21103168 1.1106707
3.4846992 -0.27785504 1.142832
3.5024893 -0.25762302 1.1737114
3.6024075 -0.28354594 1.168167
5.6909456 -0.28521681 1.1352246
5.7769232 -0.25113362 1.1083069
5.8091898 -0.22524355 1.1696042
5.9228334 -0.29746056 1.1764318
6.0612578 -0.27530551 1.1259058
6.1033397 -0.22063076 1.1910137
3.1953547 -0.19902384 1.177689
3.2201447 -0.18996295 1.1493088
5.7717452 -0.16035452 1.115315
5.8068833 -0.16998605 1.1361071
6.0728922 -0.14948268 1.1609379
6.1026664 -0.17096156 1.1889322
5.7737818 -0.088923782 1.1160297
5.8346877 -0.013881531 1.1202708
5.9116426 -0.01938951 1.1840332
6.0703712 -0.044933617 1.1439097
6.1021342 -0.049665958 1.1380029
6.2085972 -0.080845594 1.1593366
5.7826648 0.0082666092 1.1116766
5.8060575 0.00023603439 1.1826082
5.9471836 0.01217019 1.1302668
6.0785627 0.016656829 1.129463
6.1464128 0.0069693588 1.195451
6.0527339 0.10675764 1.1375974
4.3878679 1.1978271 1.1182264
4.4231524 1.1674231 1.1888375
4.5727654 1.1548017 1.1587571
4.6264086 1.1696842 1.1592917
4.3934579 1.2693956 1.1921791
4.4085059 1.2359087 1.1911163
4.5681114 1.2266865 1.1880056
4.6402206 1.237898 1.1669837
4.7083097 1.2525334 1.1513577
4.3683085 1.3543813 1.1899787
4.4203901 1.3254051 1.1708633
4.5605111 1.3487079 1.1822188
4.6475954 1.3649527 1.1145213
4.2742114 1.4735459 1.1249381
4.3413825 1.4575924 1.1981364
4.4168959 1.4240679 1.1890348
4.597167 1.4749234 1.1463691
4.6210823 1.4414726 1.1187348
4.3718376 1.5229907 1.1995182
4.4272184 1.5066668 1.1073471
4.5916805 1.5258242 1.1522192
4.6238599 1.5248462 1.104393
4.729084 1.5040482 1.1507105
4.2642775 1.628612 1.1979531
4.3334904 1.6305301 1.1986873
0.66536164 1.9358226 1.1960745
0.77566791 1.9690872 1.1782033
0.83629572 1.9636468 1.1735411
6.4972196 -1.7039168 1.2386955
6.5812407 -1.7067771 1.2790536
6.6481466 -1.7195286 1.2185823
6.7094002 -1.7229121 1.2311367
6.3943768 -1.6081675 1.2307832
6.4240046 -1.6147276 1.2044495
6.5575428 -1.6614598 1.2083267
6.6308374 -1.6324086 1.2210059
6.7091417 -1.6587236 1.2740284
6.8113599 -1.606843 1.2740951
6.3954678 -1.5815947 1.2255665
6.4833794 -1.5054975 1.2174926
6.5143132 -1.5101973 1.2392019
6.6996803 -1.5292149 1.2840148
6.7092991 -1.560201 1.2984993
6.8034735 -1.5076227 1.2850063
6.9131737 -1.5062761 1.2335043
6.4930267 -1.4891809 1.20193
6.5052023 -1.4641953 1.2281308
6.6705031 -1.407457 1.2657959
6.7414484 -1.4100642 1.2967269
6.8140182 -1.4765015 1.2959571
6.9313011 -1.4915931 1.2229238
6.5654459 -1.3537134 1.2060668
6.6507125 -1.3845885 1.2848257
6.714426 -1.3822947 1.2958734
6.5856729 -1.2881362 1.2235885
6.6174192 -1.2884854 1.2047746
3.2924113 -0.60604328 1.2441494
3.3974733 -0.61708999 1.2768562
3.6389477 -0.60176528 1.2637441
3.2805243 -0.50531662 1.2300134
3.3696091 -0.51852751 1.217262
3.4266651 -0.52525818 1.2105585
3.5292306 -0.53470898 1.2026362
3.6056449 -0.52769303 1.2464806
3.1931639 -0.41662574 1.2316637
3.2671912 -0.41908947 1.2340434
3.3109093 -0.46125883 1.2530092
3.4208972 -0.49774596 1.2608145
3.5129306 -0.49592298 1.2495996
3.6037891 -0.45845553 1.2459717
5.7810717 -0.42739993 1.2705809
5.81707 -0.42848176 1.2680779
6.0277987 -0.41352403 1.2944384
3.1826656 -0.35877347 1.2264447
3.2392621 -0.35098028 1.2396302
3.302227 -0.36917347 1.2475684
3.4915152 -0.33656359 1.2200515
3.5133443 -0.34667075 1.2559496
3.6072912 -0.36294436 1.2432733
5.6913095 -0.32536191 1.2422423
5.7663555 -0.31929561 1.2692795
5.832325 -0.31290734 1.2473066
5.9598417 -0.30769271 1.2352594
6.0234795 -0.30091316 1.2494872
3.1864634 -0.21010926 1.2500082
3.2248745 -0.2649892 1.2431834
3.3426294 -0.21634898 1.2230892
3.4954197 -0.26109934 1.2458735
3.5020733 -0.27828828 1.2530437
3.603128 -0.2936191 1.2695339
5.6644325 -0.29540366 1.2179211
5.7827101 -0.20748147 1.2688088
5.8177452 -0.27335867 1.265903
5.9553328 -0.29030886 1.2279434
6.0135841 -0.27817801 1.2184268
6.1030045 -0.25723743 1.2718503
3.196044 -0.19722383 1.2776273
3.2080653 -0.19308427 1.2712696
3.4627235 -0.17935419 1.2349474
5.778553 -0.15467423 1.2691925
5.8181462 -0.14581648 1.260802
5.9712257 -0.15969491 1.250706
6.07901 -0.16726124 1.2687638
6.1031647 -0.12715831 1.2593172
3.2340505 -0.056225061 1.2127078
5.7844262 -0.065189406 1.2702599
5.8691845 -0.0040573357 1.2623613
5.9067163 -0.00051921251 1.2594033
6.0765858 -0.068616867 1.254517
6.1034322 -0.084899761 1.2457677
5.7937503 0.006200552 1.2578733
5.8934174 0.0012959326 1.2603703
5.9348159 0.0070567792 1.2569686
6.0118456 0.012433438 1.248785
6.1026073 0.0089471415 1.240032
5.9549551 0.14814599 1.2560493
4.4405212 1.0560465 1.202095
4.2664137 1.1827993 1.2054586
4.3821793 1.1895721 1.2098874
4.4186177 1.1904376 1.2405865
4.5681581 1.1925423 1.2666218
4.6207237 1.1843191 1.255868
4.2677927 1.2189869 1.2649053
4.3771915 1.2900479 1.207335
4.4242601 1.2430923 1.2712393
4.5611391 1.2276194 1.2317603
4.6304293 1.2328186 1.2738274
4.3607116 1.3508794 1.2071254
4.4222879 1.3541118 1.2667255
4.5791526 1.3279505 1.2445848
4.64359 1.3469304 1.2796123
4.2938166 1.4883759 1.2096252
4.3252993 1.4487553 1.2075908
4.4610758 1.4982646 1.2591046
4.5473452 1.4875107 1.2228523
4.6178656 1.445307 1.2614594
4.2928553 1.5131903 1.2319069
4.3232322 1.5029464 1.2059536
4.4527173 1.5149671 1.2727427
4.566668 1.5081269 1.2322301
4.6017532 1.5045536 1.2717118
4.7432981 1.5098591 1.2709749
4.2986164 1.6009662 1.2041883
0.56486344 1.8914167 1.2160503
0.54038781 1.9150176 1.2118998
0.66462529 1.9124181 1.2020555
6.5414357 -1.7348192 1.3898171
6.6251202 -1.7317519 1.3919656
6.7083406 -1.7226202 1.351202
6.3972054 -1.6036773 1.3645222
6.469595 -1.6409942 1.3780103
6.5562 -1.6724665 1.3831613
6.615201 -1.6887225 1.3810234
6.7383766 -1.6303356 1.3965797
6.3911881 -1.5962973 1.3277171
6.4783463 -1.5282909 1.3898466
6.5118093 -1.5096154 1.3809149
6.6972718 -1.5898472 1.3427699
6.7884474 -1.5571524 1.3419164
6.8107538 -1.5258155 1.3595924
6.9101696 -1.5003527 1.3270324
6.3583131 -1.4789532 1.3916217
6.4826803 -1.4968413 1.3890635
6.5391922 -1.4401398 1.3885796
6.6902199 -1.4030328 1.3414352
6.7962861 -1.4941616 1.3634617
6.843708 -1.4777809 1.3490608
6.9138846 -1.4804075 1.3811187
6.4786992 -1.3292345 1.38455
6.5722189 -1.3724711 1.3848486
6.6056967 -1.3393049 1.3215824
6.7451148 -1.3836409 1.3636239
6.5549212 -1.2988975 1.396621
3.2944932 -0.60752863 1.3626907
3.3083522 -0.60152531 1.3570924
3.5741785 -0.61552334 1.3088062
3.6281979 -0.62835407 1.3409661
3.2807024 -0.50564504 1.349987
3.3074241 -0.56950504 1.3591182
3.4405236 -0.5270853 1.3273358
3.521832 -0.53363502 1.3164945
3.602478 -0.5326792 1.3636494
3.1920335 -0.41820773 1.3283789
3.2711427 -0.42103916 1.3526809
3.3078601 -0.44375733 1.3623116
3.4131925 -0.49805605 1.374998
3.5120444 -0.49673212 1.3814102
3.6112475 -0.41642812 1.3458607
5.8338242 -0.40238142 1.3219708
6.0105457 -0.42011511 1.3850381
3.2482612 -0.34817737 1.3565011
3.3081822 -0.37301138 1.3584037
3.4957709 -0.34893674 1.3270105
3.5172398 -0.35579538 1.3401475
3.6081908 -0.36330402 1.3366616
5.6909542 -0.31341255 1.3361638
5.7619257 -0.33347648 1.308197
5.8111744 -0.3330245 1.3344092
5.9529743 -0.31088319 1.3764675
6.0636706 -0.30908138 1.323516
3.1887085 -0.21035984 1.365508
3.2255764 -0.25799358 1.3602703
3.33813 -0.23648913 1.3618997
3.4930668 -0.25258854 1.3641829
3.5024343 -0.26743847 1.3380888
3.6032119 -0.29082704 1.3590106
5.6695642 -0.29103565 1.3402724
5.7742529 -0.22919564 1.3076603
5.8090377 -0.21780525 1.3218575
5.9647717 -0.28215724 1.3874099
6.0255022 -0.28322566 1.3767698
6.10321 -0.22939406 1.3712165
3.196322 -0.18338272 1.3847345
3.2187667 -0.1924998 1.3840789
5.7761331 -0.16170684 1.305409
5.8070369 -0.16569103 1.3172203
6.0808802 -0.15775733 1.3606548
6.1040077 -0.14333996 1.3593642
6.204277 -0.10121894 1.3795226
3.2225192 -0.082690239 1.3155811
5.7814121 -0.083937228 1.3196929
5.8441601 -0.018486615 1.3113953
5.974658 -0.0098998128 1.3438072
6.0793376 -0.079185151 1.3618673
6.1025944 -0.084920168 1.3532706
6.2045794 -0.081040621 1.381488
5.7802587 0.018087566 1.3136988
5.8521924 0.02707403 1.3039323
5.9434204 0.0097914962 1.3258259
6.0884223 0.012299912 1.3518016
6.1034012 0.020153284 1.3393081
4.4357305 1.0541008 1.3652874
4.3683443 1.1898489 1.3732584
4.4163294 1.1616991 1.3536296
4.5907235 1.1683583 1.3357935
4.6225743 1.1569015 1.3329651
4.7040043 1.173753 1.3964205
4.3840737 1.2679163 1.3702691
4.4072542 1.229422 1.3542396
4.5582271 1.2068987 1.3113127
4.6299648 1.2204096 1.3307765
4.7141294 1.246603 1.3205876
4.3649197 1.3502263 1.3699321
4.4447165 1.317356 1.3982682
4.6412983 1.3376632 1.3017287
4.2897301 1.4877923 1.3723656
4.3152704 1.4797193 1.3705616
4.4481554 1.4978801 1.3447416
4.5980349 1.4537882 1.3676733
4.6283526 1.4191412 1.3218668
4.7520609 1.486079 1.3837152
4.8216062 1.4943579 1.3737789
4.2931604 1.5330696 1.3787591
4.3174829 1.5140855 1.3913171
4.4801936 1.5243616 1.3653699
4.5911369 1.5349189 1.367039
4.6154604 1.5244586 1.3210196
4.7409716 1.5130185 1.3541634
4.2807608 1.6219959 1.3646224
6.4635358 -1.8010654 1.4292673
6.5853834 -1.8191978 1.4227134
6.4284019 -1.7608418 1.4277045
6.5342636 -1.7518065 1.438091
6.6510806 -1.7463393 1.4099194
6.7047715 -1.7076519 1.4622412
6.3962631 -1.6036706 1.4341521
6.4196615 -1.6131237 1.4310675
6.5709085 -1.6643739 1.423202
6.6373715 -1.686656 1.4199555
6.7193089 -1.6527555 1.4589493
6.3934145 -1.5588572 1.4149693
6.477747 -1.5060794 1.4294691
6.5209222 -1.5138009 1.4295874
6.6486979 -1.55091 1.4366916
6.776762 -1.5769458 1.4718442
6.8110094 -1.5137408 1.4305959
6.3550272 -1.4588782 1.4746704
6.4906101 -1.4847331 1.4294164
6.5017033 -1.4784732 1.4290483
6.6824894 -1.4024329 1.4402728
6.7926288 -1.4929514 1.416376
6.8431673 -1.4762683 1.4494944
6.905632 -1.4642179 1.4854972
6.5763721 -1.3509444 1.4272751
6.6126223 -1.3469179 1.4644709
6.7369127 -1.391675 1.4600596
6.5562611 -1.2940288 1.4048622
6.6066303 -1.2796724 1.4506024
3.296608 -0.60034579 1.4763577
3.5671875 -0.61729962 1.4234035
3.6312327 -0.61078346 1.4442775
3.2822604 -0.50463831 1.4690466
3.3008766 -0.50656068 1.4685597
3.4676914 -0.52799863 1.4438803
3.5101929 -0.53145009 1.4354247
3.6023955 -0.52613854 1.467013
3.1944776 -0.40606213 1.4177459
3.2635522 -0.42572168 1.4715337
3.3097425 -0.46614754 1.4803085
3.4499035 -0.49820226 1.4649442
3.5233202 -0.49814355 1.4748315
3.6069856 -0.42582187 1.4567078
5.7928872 -0.41311735 1.4718972
3.2399266 -0.35354739 1.4743415
3.3063514 -0.35956803 1.478116
3.4733374 -0.33085316 1.4312608
3.5086579 -0.35738191 1.4295301
3.6121588 -0.36197859 1.4326777
5.6892495 -0.31151241 1.4482012
5.7609749 -0.32157362 1.4740237
5.8275747 -0.32583588 1.4285927
5.9720335 -0.30512393 1.4254204
6.0544968 -0.31219107 1.4717228
3.1950121 -0.20846125 1.47929
3.2228549 -0.28782174 1.476388
3.3617849 -0.23844489 1.4453706
3.4876428 -0.24072464 1.4582505
3.5031507 -0.25287771 1.4561604
3.6025186 -0.29533392 1.4463943
5.6639981 -0.28398472 1.4499049
5.7561064 -0.20249505 1.4747653
5.8164277 -0.23765427 1.4885844
5.9778748 -0.28433901 1.4169097
6.018271 -0.28305513 1.4133294
6.1012945 -0.22312826 1.4724795
3.194236 -0.17697565 1.48245
3.2186818 -0.17898995 1.4891421
5.7651563 -0.16183019 1.4745103
5.807085 -0.15145244 1.4702629
5.9181204 -0.14469856 1.456604
6.0837793 -0.15788475 1.4646821
6.1021967 -0.12624592 1.4641368
3.2509613 -0.072982788 1.4151344
5.7801147 -0.019404527 1.4742106
5.833952 -0.011436048 1.4718182
5.9147558 -0.003433445 1.4686677
6.0798812 -0.061591309 1.4608747
6.1040792 -0.085292675 1.4702798
5.7892079 0.031996328 1.4659996
5.8156929 0.044952027 1.4795567
5.9734797 0.002667506 1.4717488
6.0907578 0.012934227 1.4601288
6.1067743 0.016634908 1.4560081
5.8074236 0.12256034 1.4735622
5.9180336 0.15539378 1.4663408
4.3676081 1.1910887 1.4069374
4.4124937 1.1909016 1.469391
4.5484447 1.1940979 1.4273757
4.6325054 1.1780884 1.4379997
4.7001309 1.1533836 1.4860725
4.281507 1.214941 1.4293973
4.3787909 1.2733674 1.4183987
4.4566374 1.2218761 1.4206822
4.5817347 1.2163607 1.4761013
4.6148663 1.2218378 1.4683061
4.7019134 1.2498837 1.4679766
4.3593426 1.3496464 1.4141319
4.4408941 1.3837848 1.4393907
4.5669489 1.3206112 1.4204296
4.6420889 1.3564169 1.4371752
4.7343864 1.3741333 1.4592143
4.2973137 1.4747506 1.4516774
4.3202667 1.4740026 1.4188222
4.4403191 1.4969108 1.4422809
4.5322938 1.4893446 1.4037941
4.6210232 1.4534959 1.4268986
4.7156057 1.4455485 1.4615979
4.3067541 1.5025721 1.4187201
4.461309 1.5235988 1.442328
4.592701 1.5189381 1.4388502
4.6049628 1.5057452 1.4217055
4.7214384 1.5149622 1.4313427
6.5444527 -1.7406399 1.5868795
6.6754532 -1.7158664 1.5254151
6.705924 -1.7176058 1.5242078
6.3841772 -1.6128318 1.53977
6.4410486 -1.6100597 1.5159276
6.5212321 -1.629346 1.5488632
6.6356254 -1.676018 1.5924518
6.7102227 -1.6761154 1.5510957
6.388195 -1.5660429 1.575519
6.4438095 -1.5175838 1.5953921
6.5046778 -1.5267881 1.5261941
6.6910424 -1.5951873 1.5321503
6.7829542 -1.5681705 1.5352401
6.8131018 -1.5224457 1.5568628
6.3716841 -1.4625782 1.5738606
6.466939 -1.4815259 1.5934116
6.5202837 -1.4828187 1.5069395
6.6811008 -1.4043509 1.5272378
6.7961388 -1.4954729 1.5209804
6.8365078 -1.491785 1.5329783
6.9221172 -1.4723951 1.5297897
6.5549202 -1.3457793 1.5958586
6.6119041 -1.3506269 1.5259987
6.7837934 -1.3874927 1.5203044
6.8025036 -1.3941866 1.5033269
6.6166959 -1.297465 1.5872738
3.3162096 -0.60419595 1.5924808
3.5649312 -0.61721641 1.5589385
3.2734935 -0.50226796 1.5879203
3.3087866 -0.54809302 1.5957479
3.4371519 -0.52692556 1.5645496
3.5169911 -0.53146923 1.5618898
3.6035712 -0.5290584 1.5766922
3.1823835 -0.40797365 1.5456507
3.2678406 -0.4403719 1.5885903
3.3154616 -0.44554967 1.5856934
3.4108493 -0.49860531 1.5767708
3.5135942 -0.49660468 1.5798892
3.6132858 -0.41433722 1.5209099
3.1542394 -0.30384302 1.5512038
3.2481494 -0.35005727 1.5902718
3.3044257 -0.36484867 1.594761
3.4965386 -0.34664166 1.5112817
3.5094266 -0.3533811 1.540036
3.6100335 -0.34998959 1.5244088
5.6928535 -0.31922093 1.5700296
5.7594395 -0.32320035 1.5131862
5.806325 -0.3207261 1.5128458
5.9437761 -0.31801343 1.5181787
6.0345154 -0.30226195 1.5553966
3.1895838 -0.20835593 1.5938841
3.2261269 -0.27891856 1.5917492
3.3702726 -0.24237049 1.5221373
3.4921832 -0.2691527 1.5824904
3.5115304 -0.268186 1.550737
3.6085536 -0.2912364 1.5288713
5.6709747 -0.27351904 1.5683874
5.7632294 -0.22585675 1.5194886
5.8105187 -0.2218359 1.5037332
5.9506683 -0.28765953 1.5918519
6.0112705 -0.28478169 1.5846742
6.1026416 -0.21944954 1.5793552
3.1965742 -0.19212776 1.5371555
3.2148352 -0.1919564 1.5280555
3.3036649 -0.14452243 1.5832918
3.4686542 -0.19695449 1.5377387
5.7658296 -0.1666835 1.5066807
5.8048449 -0.17443421 1.5037475
5.9731817 -0.11299896 1.5879964
6.0818501 -0.15028599 1.5731897
6.1009655 -0.16662893 1.5733272
6.2518716 -0.119241 1.5875167
3.214025 -0.080713034 1.5003014
5.7829361 -0.029168691 1.5215304
5.8528762 -0.017239178 1.5074681
5.98417 -0.0093615465 1.5582947
6.0805669 -0.044663414 1.5604408
6.1045399 -0.088285632 1.568972
6.2068624 -0.082004905 1.5898132
5.7794323 0.006244516 1.5371575
5.8252206 0.030498678 1.5084583
5.9826393 0.0047319946 1.5210086
6.0852237 0.010629656 1.559981
6.1053739 0.013492838 1.5588422
4.6536441 1.0940408 1.5155506
4.3728123 1.1965964 1.5338203
4.408668 1.159091 1.5273983
4.5451193 1.1923262 1.5894465
4.6320758 1.1820838 1.5332785
4.7037568 1.1785927 1.5521408
4.360003 1.260861 1.5336099
4.4488258 1.2264419 1.5879457
4.5842018 1.2368213 1.5930492
4.6139345 1.2441165 1.5923539
4.700664 1.2675917 1.5865091
4.345058 1.3507366 1.5331342
4.4742627 1.3931651 1.5461506
4.5812922 1.3237046 1.5934417
4.6400204 1.3738266 1.5918133
4.7178712 1.3668057 1.5364769
4.2946625 1.4898028 1.5334669
4.3208475 1.4577763 1.5326931
4.4410162 1.4948995 1.5236275
4.5395579 1.4887154 1.5849415
4.6247058 1.4350861 1.5869421
4.7081451 1.416042 1.5407169
4.2943425 1.5200977 1.5558807
4.3099546 1.507786 1.552246
4.4467082 1.5208921 1.5560039
4.5810785 1.5189759 1.5878737
4.6191101 1.5199435 1.5945016
4.7079258 1.5152694 1.5550457
4.2766171 1.6279329 1.5273572
6.5815158 -1.8194505 1.6613181
6.3936243 -1.7362635 1.6632724
6.4265008 -1.7352159 1.6541522
6.5787935 -1.7201279 1.6702682
6.6506267 -1.7213196 1.670076
6.709671 -1.7120397 1.6744126
6.3940792 -1.6023333 1.6642444
6.420785 -1.6133769 1.6639591
6.5256805 -1.6483965 1.6632082
6.6269426 -1.673048 1.6243601
6.7064624 -1.6771311 1.6332893
6.3977122 -1.5987194 1.66447
6.4110613 -1.5934746 1.6640899
6.5671229 -1.5155976 1.6624736
6.6934514 -1.5822818 1.6423501
6.7763762 -1.5738612 1.6533889
6.809576 -1.5232474 1.6514002
6.2788291 -1.4643683 1.6916673
6.3759575 -1.4895425 1.6607313
6.4838076 -1.4790838 1.6640702
6.5359716 -1.4268012 1.6618085
6.6774826 -1.402964 1.6751221
6.798481 -1.4943665 1.6382554
6.8366385 -1.4840226 1.6634936
6.9207201 -1.468257 1.6812432
6.5740185 -1.3535612 1.6638048
6.6224165 -1.3519001 1.6637466
6.7501173 -1.3910654 1.6419554
6.8107719 -1.3962212 1.6416583
6.5850201 -1.2585499 1.654466
6.6125455 -1.2722824 1.6675481
3.5654697 -0.6152882 1.6635513
3.2783835 -0.50537866 1.6089108
3.338552 -0.50876504 1.6443789
3.4608541 -0.52230918 1.6859953
3.5289686 -0.53327948 1.6816986
3.6052754 -0.52833402 1.662082
3.2649851 -0.41418189 1.6007818
3.3120165 -0.47026122 1.6011142
3.4405837 -0.49933565 1.6827272
3.525558 -0.49578077 1.6644527
3.6193895 -0.47353393 1.6376059
5.7827492 -0.40895942 1.675261
5.9909983 -0.42475712 1.6274724
3.1864827 -0.30774531 1.6598656
3.2412899 -0.32002404 1.6009147
3.3244262 -0.37212989 1.6713452
3.4872513 -0.34872609 1.6253258
3.506089 -0.36860231 1.6527667
3.6098244 -0.37106147 1.6119732
5.6852994 -0.33477938 1.6711037
5.7620144 -0.32392603 1.677663
5.857852 -0.32337093 1.6318779
5.9617605 -0.30990368 1.6260065
6.0539598 -0.3069317 1.6336946
6.1050491 -0.3003217 1.6281633
3.1982036 -0.21167208 1.6057234
3.2185221 -0.26391891 1.6023653
3.3695145 -0.22989474 1.6666886
3.4943833 -0.27211899 1.6760365
3.5047998 -0.26199269 1.6632652
3.6146719 -0.29451936 1.6173453
5.6878901 -0.2964592 1.6908458
5.7705541 -0.20524351 1.6778977
5.8022356 -0.24518922 1.6569684
5.9808693 -0.28567505 1.6127445
6.0267668 -0.28139833 1.6136028
6.1046433 -0.22610569 1.6814796
3.1891911 -0.19782652 1.6851025
3.2038813 -0.19592789 1.6248519
5.7634439 -0.16927686 1.6781036
5.8061304 -0.12707195 1.6739784
6.0820498 -0.15397228 1.6685064
6.1020722 -0.15098688 1.6736732
5.7827482 -0.019599484 1.6782522
5.8050404 -0.01282314 1.678196
5.9459219 -0.015395018 1.6658486
6.0819101 -0.041162651 1.6609296
6.1025896 -0.083417624 1.6750245
5.7969341 0.042451657 1.6851262
5.8095722 0.034799263 1.6763554
5.9887648 0.0028062887 1.6421825
6.0963335 0.0083354041 1.6687137
6.110826 0.0076458473 1.6703808
5.7857938 0.12859657 1.6761833
5.8060799 0.12096179 1.6775943
4.4207993 1.0822146 1.6851437
4.3663607 1.1964085 1.6944427
4.4056659 1.1731406 1.6681151
4.5800953 1.1848767 1.672241
4.6277032 1.1823106 1.6474485
4.3685694 1.2885683 1.6941972
4.4301353 1.2365783 1.644248
4.5729532 1.2237591 1.6340665
4.6443691 1.2437383 1.622607
4.7056217 1.2378693 1.6249143
4.3464279 1.3493936 1.6942736
4.4502397 1.3965814 1.6174576
4.5837474 1.3949872 1.6069857
4.6460228 1.365784 1.6085666
4.7139874 1.3670912 1.6810246
4.2950397 1.4903713 1.6943848
4.3168402 1.4715364 1.6942058
4.4296474 1.4951442 1.6603323
4.5967712 1.4590524 1.6476284
4.6139526 1.4632668 1.6155748
4.7276473 1.4320943 1.6425742
4.8260865 1.4935839 1.6420498
4.2950501 1.5743452 1.6912705
4.3459444 1.502661 1.6937617
4.4476051 1.5235209 1.6644063
4.5983148 1.5185103 1.629719
4.6060891 1.5101209 1.6105869
4.7211943 1.5129356 1.6593064
4.2911568 1.6325068 1.6891311
6.6114597 -1.807354 1.7730641
6.5745325 -1.7212918 1.7108803
6.6748958 -1.7016903 1.7695642
6.3935184 -1.6066371 1.7886596
6.4317141 -1.6178278 1.7537913
6.519074 -1.641373 1.7204996
6.6437697 -1.6464336 1.7948625
6.7101173 -1.6813917 1.7407584
6.3919983 -1.5568039 1.7875739
6.4171104 -1.5781281 1.7272904
6.5101967 -1.5068834 1.7097644
6.6919932 -1.5884976 1.7517421
6.7841849 -1.5600384 1.7557251
6.8078556 -1.5244286 1.7755859
6.469533 -1.4605429 1.7552176
6.5034275 -1.4395673 1.7259576
6.6638837 -1.4087965 1.7534778
6.7981496 -1.4951816 1.7235897
6.832881 -1.4894174 1.7694474
6.5755219 -1.3525505 1.726588
6.6346407 -1.338501 1.7252703
6.7513514 -1.390172 1.7380211
6.8160267 -1.3962052 1.7403758
6.5651588 -1.2935275 1.7471691
6.6289768 -1.2780383 1.7958461
3.2743299 -0.50112879 1.7057164
3.3544352 -0.51051414 1.7479925
3.4485888 -0.51929116 1.7859039
3.5153837 -0.53040779 1.789214
3.6027958 -0.52905512 1.7797091
3.196655 -0.40118909 1.7716527
3.2575951 -0.44070742 1.7059278
3.3167493 -0.44330096 1.7114789
3.4124453 -0.49845019 1.7937905
3.5205216 -0.49640822 1.7539077
3.6071951 -0.45482606 1.7861576
5.8215628 -0.40116572 1.7215186
5.9885826 -0.40010428 1.7049687
3.1980162 -0.39116645 1.7830095
3.2447224 -0.35114372 1.7064856
3.307847 -0.36652195 1.7447176
3.4624522 -0.31587428 1.7932326
3.5060732 -0.33186251 1.7885759
3.6057022 -0.37864995 1.75125
5.6814613 -0.32727525 1.7786102
5.7576866 -0.3271957 1.7116536
5.841023 -0.31558496 1.7799784
5.9091959 -0.31446156 1.7682003
6.0537271 -0.30371872 1.782405
6.1063404 -0.30532551 1.7679143
3.1953306 -0.20803088 1.7076821
3.2190254 -0.27824193 1.7070136
3.3439848 -0.22665673 1.7962208
3.4864144 -0.24284504 1.7644566
3.5087595 -0.25539792 1.7584068
3.6025519 -0.29062814 1.7871609
5.6174488 -0.2459271 1.7974725
5.7661924 -0.22381307 1.7195998
5.805634 -0.22338469 1.7877461
5.930356 -0.28696477 1.7918243
6.0132365 -0.27731112 1.7652839
6.1020079 -0.25462586 1.7812204
3.1945872 -0.1865319 1.7395315
3.2156725 -0.17601106 1.7188635
3.3320212 -0.19845521 1.7879024
5.7675147 -0.16876522 1.7089885
5.8089943 -0.16954184 1.7866511
6.0845757 -0.12051559 1.7660598
6.1021609 -0.14850572 1.7809216
5.7762365 -0.02958904 1.7135825
5.8077288 -0.018600632 1.7388608
5.9337788 -0.019041345 1.7605159
6.0844717 -0.065466091 1.7670065
6.1038079 -0.083927959 1.7805711
5.7728763 0.0065233707 1.7666814
5.809411 0.028324658 1.7144235
5.9825535 0.0033417535 1.7255844
6.0971155 0.0049909544 1.7699982
6.104147 0.0083096791 1.7815716
4.3676257 1.1967928 1.7040544
4.4302459 1.1932359 1.7698617
4.5662451 1.1807616 1.7419642
4.6218691 1.1822567 1.7445692
4.7013865 1.164039 1.7146641
4.3594074 1.2943463 1.7039006
4.4699087 1.2171556 1.7537991
4.5849943 1.2348275 1.791416
4.6290445 1.2450293 1.7891461
4.7081242 1.2019023 1.7184813
4.2981114 1.3941243 1.7632867
4.3437161 1.3457812 1.7016203
4.4555049 1.3855466 1.7539715
4.5761156 1.328312 1.7677332
4.6432543 1.3700947 1.7593585
4.2888651 1.4892408 1.7059448
4.3184528 1.4727291 1.707019
4.4367952 1.4969823 1.7469295
4.525363 1.4854374 1.764762
4.6180639 1.4661343 1.7559704
4.7072449 1.4178594 1.7384752
4.2863722 1.5064282 1.782337
4.3160558 1.5124536 1.7253304
4.4286318 1.5209198 1.7414442
4.5528588 1.5181313 1.7701709
4.6090698 1.5116754 1.7622129
4.7185016 1.5154043 1.7482165
4.8125343 1.5232544 1.7719738
6.3908615 -1.7390493 1.8955258
6.4002414 -1.759402 1.8955339
6.5690389 -1.7171607 1.856927
6.684341 -1.7048324 1.8347441
6.7064924 -1.7144622 1.8381261
6.3873129 -1.6025529 1.8963683
6.4046521 -1.6062357 1.8967141
6.5618324 -1.6636996 1.8500571
6.6135445 -1.676861 1.8517541
6.7084417 -1.6777086 1.8242257
6.2918739 -1.528594 1.8706954
6.3924665 -1.5918374 1.8961873
6.4093246 -1.586477 1.8967373
6.569416 -1.5197971 1.8924685
6.6956959 -1.5960271 1.8232654
6.7648511 -1.5863748 1.8686409
6.8067131 -1.5193491 1.8578483
6.3640089 -1.4944276 1.8266199
6.4757166 -1.4698009 1.8979006
6.5333929 -1.4510863 1.8912662
6.6585007 -1.4085876 1.8408029
6.7962675 -1.4964113 1.8540844
6.8340425 -1.4810307 1.8550173
6.9183674 -1.4597564 1.8325483
6.5606027 -1.3425827 1.8996422
6.6243739 -1.3631489 1.8383017
6.7646685 -1.3832972 1.8634259
6.8169203 -1.3962992 1.8524647
6.6230416 -1.2630761 1.8893667
3.6295938 -0.61434388 1.8594818
3.2702737 -0.50051576 1.8234279
3.3082402 -0.56872582 1.8302584
3.4372294 -0.51913279 1.8062545
3.5259669 -0.53124994 1.8050594
3.6027451 -0.5249064 1.8654684
3.2579803 -0.43742841 1.822708
3.3046865 -0.46766317 1.8461784
3.4322057 -0.49508476 1.8958726
3.5085382 -0.49864107 1.8586736
3.6146641 -0.4590244 1.8664429
5.7914333 -0.42072713 1.8794558
5.9687185 -0.40771213 1.8602445
3.1906705 -0.3793757 1.8764434
3.2302644 -0.35003266 1.8221148
3.3010769 -0.36781937 1.8460977
3.4704576 -0.32107753 1.8123226
3.511147 -0.37456134 1.8788402
3.606499 -0.36809206 1.8855653
5.6997857 -0.34295452 1.8856713
5.7509441 -0.3310647 1.8809282
5.8134794 -0.35703573 1.8720809
5.951447 -0.31040817 1.8223587
6.0452213 -0.30730075 1.8456179
3.1817837 -0.20451349 1.8210405
3.2163832 -0.28554678 1.8218023
3.3229237 -0.236992 1.8280414
3.4935517 -0.26551563 1.8723919
3.5047832 -0.27071893 1.8456281
3.6234093 -0.28874776 1.8528832
5.7647071 -0.20936389 1.8814334
5.8157139 -0.25660059 1.8609009
5.9617376 -0.29928118 1.8322935
6.0466385 -0.29125184 1.8120394
6.1018586 -0.21502046 1.8870711
3.1933932 -0.19583017 1.8496445
3.2077026 -0.18097031 1.8443309
3.333647 -0.19448949 1.8126101
5.7662425 -0.15109332 1.8815759
5.8674927 -0.17456315 1.8727615
6.0870905 -0.12937647 1.8677757
6.1020651 -0.12829083 1.8839076
5.7856545 -0.01898147 1.8823667
5.8594694 -0.0088729989 1.8840362
5.9022737 -0.0017006928 1.8851361
6.0851583 -0.070935503 1.8683393
6.1033797 -0.091351703 1.8843116
6.222331 -0.087100983 1.8001143
5.7924066 0.031343736 1.8860154
5.8476973 0.044745948 1.887617
5.9516306 0.047075342 1.8686632
6.0904694 0.0081422552 1.8754086
6.1028681 0.0072060586 1.8804553
5.8494411 0.1306272 1.8821646
4.4229245 1.0569978 1.8484888
4.3520432 1.1959156 1.8543845
4.4148698 1.1986823 1.86452
4.5803938 1.1681374 1.8151774
4.6278048 1.1891142 1.8211254
4.7032847 1.1892501 1.8358101
4.3530159 1.2418084 1.8546845
4.4186916 1.2212861 1.8471143
4.5815458 1.2316766 1.8208449
4.639164 1.2586098 1.8093008
4.7060013 1.2567811 1.8580875
4.3384557 1.3487802 1.855145
4.4521041 1.391592 1.8099906
4.6422133 1.3672336 1.8956324
4.2935128 1.4913892 1.8552204
4.3312864 1.4165063 1.8554755
4.4364901 1.4973874 1.8101683
4.5952272 1.4635184 1.8918407
4.6271596 1.4414897 1.8453194
4.7122154 1.4152374 1.8559691
4.8142281 1.4780812 1.8568593
4.2965512 1.5008845 1.8556844
4.3104172 1.5022155 1.8566477
4.4343958 1.5254307 1.833909
4.5917163 1.5269098 1.852813
4.6081219 1.5467877 1.8863393
4.7489843 1.5109202 1.8360392
4.8079138 1.5282614 1.8490834
4.2716827 1.6151283 1.852868
6.4912338 -1.7001492 1.9460709
6.561718 -1.7459785 1.9571726
6.6553764 -1.7110424 1.9713163
6.7049122 -1.7018702 1.9526975
6.3935471 -1.6075648 1.9180061
6.4132233 -1.6124586 1.9187208
